0,0,0,0,0,0,0,0,0,0,0,0,0,0,0,0,0,0,0,0,0,0,0,0,0,0,0,0,0,0,0,667,668,670,671,673,676,678,681,683,686,687,689,690,691,692,694,695,697,698,700,701,702,702,702,702,702,701,701,700,700,699,699,694,0,0,0,0,589,587,586,586,585,0,545,547,547,546,546,546,546,546,547,549,551,556,557,557,554,554,554,555,557,559,561,562,563,564,564,564,565,565,566,568,569,571,573,575,577,578,578,578,578,577,575,573,571,568,566,565,565,566,567,569,571,573,575,577,578,579,580,581,582,582,583,584,585,587,588,590,591,593,594,595,596,596,0,565,566,567,568,570,574,576,585,589,593,596,599,602,605,608,611,613,614,614,614,613,0,0,0,0,0,0,0,0,541,541,541,542,542,542,541,541,542,542,542,542,0,0,637,641,643,645,647,648,650,652,653,654,654,655,655,655,655,655,655,655,655,655,656,657,658,659,661,662,664,666,668,670,672,675,677,680,683,685,687,688,689,689,690,690,690,691,691,690,689,687,657,652,649,649,649,649,649,650,650,650,650,717,715,714,711,709,707,705,704,703,702,701,701,700,699,698,697,696,695,695,695,697,698,701,703,705,707,708,0,0,664,663,661,660,658,656,654,652,650,649,647,646,645,645,644,643,642,641,641,641,640,678,680,680,679,678,676,674,672,671,670,671,672,674,676,679,682,684,686,687,687,687,686,686,684,683,682,680,679,678,677,675,674,674,673,673,674,675,675,676,676,675,674,674,673,672,671,671,672,673,674,676,678,681,683,686,688,689,690,691,691,691,691,690,689,689,688,687,686,684,682,680,678,676,674,673,673,673,673,673,673,672,672,672,672,672,673,673,674,675,676,677,678,679,680,680,681,681,681,682,682,682,682,683,683,683,683,683,682,681,680,680,679,679,679,679,677,741,740,740,739,737,737,736,728,727
0,0,0,0,0,0,0,0,0,0,0,0,0,0,0,0,0,0,0,0,0,0,0,0,0,0,0,0,0,0,0,667,668,670,671,673,675,678,681,683,685,687,689,690,692,693,694,695,697,698,700,701,702,702,702,702,702,701,701,700,700,699,699,694,0,0,0,0,0,587,586,585,0,544,545,546,546,546,546,546,546,546,547,549,553,557,558,557,556,555,555,555,557,559,561,562,563,564,564,564,565,565,566,568,570,572,574,576,578,579,579,579,578,577,575,573,571,568,566,565,565,566,567,568,570,572,574,576,578,579,580,581,581,582,583,583,585,586,588,589,591,592,593,594,595,596,0,566,566,567,569,571,574,579,584,588,592,596,599,602,605,608,611,613,614,614,614,613,0,0,0,0,0,0,0,0,0,541,541,542,542,542,542,542,542,542,542,542,0,0,639,640,642,644,646,648,650,652,653,654,654,655,655,655,655,655,655,655,655,656,656,657,658,660,661,663,665,667,669,671,673,676,679,682,684,686,688,689,689,690,690,691,691,691,691,690,689,688,657,649,650,649,650,650,650,651,651,650,651,716,715,713,711,708,706,705,703,703,702,701,701,700,699,698,697,696,695,695,696,697,699,702,704,706,708,708,0,0,664,663,661,660,658,656,654,652,650,649,647,646,645,645,644,643,642,642,641,641,640,679,680,680,679,677,675,673,672,671,670,671,673,675,678,680,683,685,686,687,687,687,686,685,684,683,682,680,679,678,677,675,674,673,673,673,674,675,675,676,676,675,674,673,672,672,671,672,672,673,675,677,679,682,684,687,689,690,691,691,691,691,691,690,689,689,688,687,686,684,682,680,678,676,675,674,673,673,673,673,673,673,672,672,672,673,673,674,675,676,677,678,678,679,679,680,680,681,681,681,682,682,682,683,683,682,682,682,681,680,680,679,679,679,679,679,680,681,682,712,707,706,699,696,694,694
0,0,0,0,0,0,0,0,0,0,0,0,0,0,0,0,0,0,0,0,0,0,0,0,0,0,0,0,0,0,0,0,669,670,671,673,675,678,680,682,685,687,689,691,692,693,694,696,697,698,700,701,702,702,702,702,702,701,701,701,700,700,699,697,0,0,0,0,0,0,0,0,0,545,546,546,546,546,546,545,546,546,546,0,0,558,558,558,556,555,555,555,557,558,560,561,562,563,563,563,564,565,566,568,570,573,575,577,578,579,579,579,578,577,575,573,571,568,566,565,565,565,566,567,569,572,574,575,577,579,580,581,581,582,582,583,584,586,587,589,590,591,593,594,595,595,0,0,567,568,569,571,575,579,584,588,592,596,599,602,605,609,611,613,614,614,614,614,0,0,0,0,0,0,0,0,0,541,542,542,542,542,542,542,542,542,542,542,0,0,637,640,642,644,647,649,651,652,653,654,655,655,655,655,655,655,655,656,656,656,657,658,659,661,663,664,666,668,670,672,675,678,681,683,686,687,688,689,689,690,690,691,691,692,692,691,688,658,651,650,650,650,650,651,652,652,652,652,651,716,715,713,710,708,706,704,703,703,702,701,701,700,699,698,697,696,695,695,696,698,700,703,705,707,708,709,0,665,665,663,662,660,658,656,654,652,650,648,647,646,645,645,644,643,643,642,641,641,641,680,680,680,679,677,675,673,672,671,671,672,674,676,679,682,684,686,687,688,688,687,686,685,684,683,681,680,679,678,676,675,674,673,673,673,674,675,676,676,676,675,674,673,672,672,672,672,673,674,676,678,680,683,685,688,689,690,691,691,691,691,691,690,690,689,688,687,686,684,682,680,678,676,675,674,674,674,674,674,673,673,673,673,673,673,674,674,675,677,677,678,679,679,679,680,680,681,681,681,682,682,682,682,682,682,682,681,680,680,679,679,679,679,680,680,681,682,683,685,686,687,691,691,691,691
0,0,0,0,0,0,0,0,0,0,0,0,0,0,0,0,0,0,0,0,0,0,0,0,0,0,0,0,0,0,0,0,669,670,671,673,675,677,680,682,685,687,689,691,693,694,695,696,697,698,699,701,701,702,702,702,702,701,701,701,700,700,699,697,696,0,0,0,0,0,0,0,0,545,547,546,546,546,545,545,546,546,546,0,0,0,558,558,554,552,555,555,556,558,559,560,561,561,562,562,562,563,564,567,569,572,575,577,578,579,580,579,578,577,575,573,570,568,566,564,564,564,565,567,568,571,573,575,576,578,579,580,581,581,582,583,584,585,587,588,590,591,592,593,594,594,0,0,567,568,570,572,575,579,584,588,592,596,599,602,605,608,611,613,614,615,615,0,0,0,0,0,0,0,0,0,0,542,542,542,542,542,542,542,542,542,542,542,0,0,0,639,641,645,647,649,651,653,654,655,655,655,656,656,656,656,656,656,657,657,658,659,660,662,664,666,668,670,672,674,677,680,682,685,687,688,689,689,690,690,691,691,692,692,693,692,0,653,651,650,650,651,651,652,653,654,653,0,717,716,714,712,710,708,706,704,703,703,702,701,701,700,699,698,697,696,695,696,697,699,701,704,706,708,709,0,666,667,665,664,662,660,658,656,654,652,650,649,647,646,645,645,644,643,643,642,642,642,0,680,680,680,679,677,675,673,672,671,671,673,675,677,680,683,685,687,688,688,688,687,686,685,684,683,681,680,679,677,676,675,674,673,673,674,675,675,676,676,676,675,674,673,672,672,672,672,673,675,676,679,681,684,686,688,690,691,692,692,691,691,691,690,690,689,688,687,686,684,682,680,678,676,675,675,674,674,674,674,674,673,673,673,673,673,674,675,676,677,678,679,679,679,680,680,680,680,681,681,682,682,682,682,682,682,681,681,680,680,679,679,679,680,680,681,682,683,684,685,686,687,689,689,689,689
0,0,0,0,0,0,0,0,0,0,0,0,0,0,0,0,0,0,0,0,0,0,0,0,0,0,0,0,0,0,0,0,668,670,671,673,675,677,679,682,684,687,689,691,693,694,695,696,697,698,699,700,701,702,702,702,702,702,701,701,701,700,700,698,0,0,0,0,0,0,0,0,546,548,547,547,546,546,546,546,546,546,547,552,556,557,557,557,555,554,554,555,556,557,559,559,560,560,560,560,560,561,562,562,568,572,574,577,578,579,580,579,578,577,575,573,570,567,565,564,563,563,564,566,567,570,572,574,575,577,579,580,580,581,582,582,583,585,586,588,589,591,592,593,594,594,0,0,568,569,570,572,575,579,584,588,592,596,599,602,605,608,611,613,0,0,0,0,0,0,0,0,0,0,0,0,0,542,542,542,542,542,542,542,542,542,542,542,0,0,0,638,641,645,648,650,652,654,655,655,656,656,656,656,656,656,656,657,657,658,659,660,662,663,665,667,669,671,673,676,679,681,684,686,688,689,689,690,690,691,691,692,692,693,693,0,0,0,650,651,651,652,653,654,654,655,655,656,717,716,714,712,709,707,705,704,703,703,702,701,701,700,699,698,697,696,696,696,698,700,702,705,707,709,709,0,666,667,665,664,662,660,658,656,654,652,650,649,647,646,645,645,644,644,643,643,642,642,681,680,680,680,679,677,675,673,672,672,672,673,676,678,681,684,686,687,688,688,688,687,686,685,684,682,681,680,678,677,676,675,674,673,674,674,675,676,676,676,676,675,674,673,672,672,672,673,674,675,677,680,682,685,687,689,691,691,692,692,692,691,691,690,690,689,688,687,686,684,682,680,678,677,676,675,675,675,675,674,674,674,673,673,674,674,675,676,677,678,678,679,679,680,680,680,680,680,681,681,682,682,682,682,682,681,681,680,680,680,679,679,680,680,681,682,683,683,684,685,686,686,687,688,688,687
0,0,0,0,0,0,0,0,0,0,0,0,0,0,0,0,0,0,0,0,0,0,0,0,0,0,0,0,0,0,0,0,669,670,671,672,674,677,679,681,684,687,689,691,693,694,695,696,697,698,699,700,701,701,702,702,702,702,701,701,701,701,700,700,699,699,0,0,0,0,0,0,545,548,547,547,546,546,546,546,546,546,547,553,556,556,557,556,555,554,554,555,556,557,558,559,559,559,559,558,558,559,559,560,566,571,574,576,578,579,580,580,578,577,575,572,569,566,563,562,562,562,563,564,566,568,570,572,574,576,578,579,580,581,581,582,583,585,586,588,589,590,592,592,593,0,0,0,568,569,571,573,576,579,584,588,592,596,599,602,604,608,611,613,617,0,0,0,0,0,0,0,0,0,0,0,0,542,542,542,542,542,542,542,542,542,542,542,0,0,632,637,640,647,649,651,653,654,655,656,656,656,656,656,657,657,657,657,658,659,660,661,663,664,666,668,670,672,675,677,680,683,685,687,689,689,690,690,690,691,691,692,693,693,693,0,0,649,650,651,652,653,654,655,656,656,658,719,717,715,713,711,709,707,705,704,703,703,702,701,701,700,699,697,696,696,696,697,699,701,704,706,709,710,710,0,669,668,666,664,662,660,658,656,654,652,650,649,647,646,645,645,644,644,644,643,643,643,682,681,681,680,679,677,675,674,672,672,673,674,677,680,682,685,687,688,688,688,688,687,686,685,684,682,681,679,678,677,676,675,674,674,674,674,675,676,676,676,676,675,674,673,672,672,672,673,674,676,678,681,683,686,688,690,691,692,692,692,692,691,691,690,690,689,688,687,686,684,682,680,678,677,676,675,675,675,675,675,674,674,674,674,674,675,676,677,677,678,679,679,680,680,680,680,680,680,681,681,682,682,682,682,682,681,681,680,680,680,680,680,680,681,682,683,683,684,685,685,686,686,687,687,686,686
0,0,0,0,0,0,0,0,0,0,0,0,0,0,0,0,0,0,0,0,0,0,0,0,0,0,0,0,0,0,0,0,669,669,671,672,674,676,679,681,684,686,689,691,693,695,695,696,696,697,698,699,700,701,701,702,702,702,701,701,701,701,700,700,700,700,0,0,0,0,0,0,0,547,547,547,546,546,546,546,546,546,547,553,556,556,556,555,554,554,554,555,556,557,558,558,558,558,557,557,557,557,556,556,554,551,548,544,543,579,580,579,579,577,576,573,567,564,560,560,560,561,562,563,565,567,569,571,573,575,577,578,579,580,581,582,583,584,586,587,589,590,591,592,593,594,0,0,569,570,571,573,576,580,584,588,592,596,599,602,605,608,612,614,616,619,0,0,0,0,0,0,0,0,0,0,0,542,543,542,542,542,542,542,542,542,543,0,0,626,622,626,640,649,651,653,654,655,656,656,656,657,657,657,657,657,658,658,659,659,660,662,664,665,667,669,671,673,676,679,681,684,686,688,689,690,690,690,691,691,692,692,693,693,0,0,0,649,651,652,653,654,655,656,657,657,658,718,717,715,713,711,708,707,705,704,703,703,702,701,701,700,698,697,696,696,696,698,700,702,705,708,710,711,711,0,670,668,665,664,662,660,658,656,654,652,651,649,647,646,645,645,645,644,644,644,685,683,682,681,681,680,679,677,675,674,673,673,673,675,678,681,683,686,687,688,689,689,688,687,686,685,683,682,681,679,678,677,675,674,674,674,674,675,676,676,676,676,676,675,674,673,673,672,673,674,675,677,679,682,684,687,689,690,691,692,692,692,692,691,691,690,690,689,689,687,686,684,682,680,678,677,676,676,676,676,675,675,675,674,674,674,675,676,676,677,678,679,680,680,680,680,680,680,680,681,681,681,682,682,682,682,681,681,680,680,680,680,680,680,681,682,682,683,684,685,685,686,686,686,686,686,686,686
0,0,0,0,0,0,0,0,0,0,0,0,0,0,0,0,0,0,0,0,0,0,0,0,0,0,0,0,0,0,0,0,669,669,670,672,674,676,678,681,683,686,689,691,693,694,695,696,696,697,697,698,700,700,701,701,701,701,701,701,701,701,701,700,700,700,0,0,0,0,0,0,0,545,547,547,546,546,546,546,546,547,0,554,555,555,555,554,554,553,554,555,556,558,558,558,558,557,557,556,555,555,554,554,552,549,547,544,543,543,543,543,544,545,545,547,551,553,557,557,558,559,560,561,563,565,567,569,571,573,576,577,579,580,581,582,583,584,586,587,589,590,591,592,593,594,0,0,0,571,572,574,576,580,584,588,592,596,599,602,605,608,612,615,616,618,0,0,0,0,0,0,0,0,0,0,0,543,543,543,543,542,542,542,543,543,543,542,0,619,621,623,633,651,652,654,655,656,656,656,657,657,657,657,657,658,658,658,659,660,661,662,664,666,668,670,672,674,677,679,682,685,687,689,690,690,690,691,691,691,692,692,693,0,0,0,649,650,651,652,654,655,656,657,658,658,659,718,716,715,712,710,708,706,705,704,703,703,702,701,700,699,698,697,696,696,697,698,701,703,706,709,711,712,712,0,670,668,665,663,661,660,658,656,655,653,651,649,647,646,646,645,645,644,645,0,680,681,682,682,682,681,679,677,675,674,673,673,674,676,679,682,684,686,688,689,689,689,688,687,686,684,683,682,680,679,678,676,675,674,674,674,674,675,676,676,677,676,676,675,674,673,673,673,673,674,676,678,680,683,685,687,689,691,692,692,692,692,692,691,691,691,690,689,689,687,686,684,682,680,678,677,676,676,676,676,676,675,675,675,675,675,676,676,677,678,679,680,680,680,680,680,680,680,680,681,681,681,682,682,682,682,681,681,680,680,680,680,680,681,681,682,683,684,685,685,685,686,686,686,686,685,685,685
0,0,0,0,0,0,0,0,0,0,0,0,0,0,0,0,0,0,0,0,0,0,0,0,0,0,0,0,0,0,0,0,668,669,670,672,674,676,678,681,683,686,689,691,693,694,695,696,696,696,697,698,699,700,701,701,701,701,701,701,701,701,701,700,700,700,0,0,0,0,0,0,0,545,547,547,546,546,546,546,546,547,549,553,554,554,554,553,553,553,553,554,0,559,559,559,558,557,556,555,555,554,553,552,550,547,546,544,543,543,543,544,544,545,545,546,548,550,554,554,555,557,558,559,561,563,565,567,570,572,574,576,578,580,581,582,583,584,586,587,588,590,591,592,593,593,0,0,0,571,572,574,577,580,584,588,592,596,599,602,605,609,612,615,616,618,618,0,0,0,0,0,0,0,0,0,0,543,543,543,543,543,542,543,543,543,543,542,0,0,626,622,651,653,654,655,656,656,657,657,657,657,657,657,657,658,658,658,659,660,661,663,665,667,669,671,673,675,677,680,683,686,688,689,690,690,691,691,691,691,692,692,693,0,0,0,650,651,652,653,655,656,657,658,659,659,720,718,716,714,712,710,708,706,705,704,703,703,702,701,700,699,698,697,696,697,698,699,702,705,708,710,712,714,714,0,670,667,664,662,661,659,658,657,655,653,651,650,648,646,646,645,645,645,645,0,682,682,683,683,682,681,679,677,675,674,673,673,675,677,680,683,685,687,689,689,689,689,688,687,686,684,683,681,680,679,678,676,675,674,674,674,675,675,676,677,677,676,675,675,674,673,673,673,674,675,677,679,681,684,686,688,690,691,692,692,692,692,692,691,691,691,690,690,689,687,686,684,681,680,678,677,677,676,676,676,676,676,675,675,675,676,676,677,678,679,680,680,681,681,681,681,681,681,681,681,681,682,682,682,682,681,681,681,680,680,680,680,681,681,682,683,684,684,685,685,686,686,686,685,685,685,685,684
0,0,0,0,0,0,0,0,0,0,0,0,0,0,0,0,0,0,0,0,0,0,0,0,0,0,0,0,0,0,0,0,669,669,670,672,674,676,678,681,683,686,688,691,693,694,695,695,696,696,696,697,698,700,700,701,701,701,701,701,701,701,701,700,700,0,0,0,0,0,0,0,550,549,548,547,546,546,546,546,546,547,549,551,552,553,552,552,552,552,553,554,557,559,560,559,559,558,557,555,554,553,552,551,549,546,545,544,543,543,544,544,544,545,545,546,548,549,551,552,554,555,556,558,559,561,563,565,568,570,573,575,577,579,580,582,583,584,585,586,588,589,590,592,593,593,0,0,0,572,573,575,577,581,584,588,592,596,599,602,605,609,612,615,616,618,618,0,0,0,0,0,0,0,0,0,542,543,543,543,543,543,543,543,543,543,542,0,0,641,619,650,654,654,655,656,656,657,657,657,657,657,657,657,657,657,658,658,659,660,661,663,665,667,669,671,673,676,678,681,684,686,688,689,690,690,691,691,691,692,692,692,0,0,0,649,650,651,653,654,656,657,658,659,660,660,719,717,716,714,712,709,708,706,705,704,703,703,702,701,700,699,698,697,697,697,698,700,703,706,709,712,714,715,716,0,0,662,663,662,660,659,658,657,656,654,652,650,648,647,646,645,645,645,645,682,683,683,683,683,682,681,679,677,675,674,673,674,675,678,681,684,686,688,689,689,689,689,688,687,685,684,683,681,680,679,677,676,675,674,674,674,675,676,676,677,677,676,675,675,674,673,673,673,674,676,678,680,682,685,687,689,691,692,692,693,693,692,692,692,691,691,690,690,689,687,685,683,681,680,678,677,677,677,677,676,676,676,676,676,676,676,677,678,679,680,680,681,681,681,681,681,681,681,681,681,682,682,682,682,682,681,681,680,680,680,680,680,681,682,683,684,684,685,685,686,686,686,685,685,685,685,684,684
0,0,0,0,0,0,0,0,0,0,0,0,0,0,0,0,0,0,0,0,0,0,0,0,0,0,0,0,0,0,0,0,0,669,671,672,674,676,678,680,683,685,688,690,692,694,695,695,695,696,696,697,698,699,700,701,701,702,702,701,701,701,701,700,700,699,0,0,0,0,0,0,0,549,547,547,546,546,545,546,546,547,549,550,551,551,551,551,550,551,552,553,557,560,561,561,560,558,557,556,555,553,552,551,547,546,545,544,544,544,544,545,545,545,546,547,547,549,550,551,552,554,555,556,558,560,562,564,566,568,571,573,576,578,580,581,583,584,585,586,587,589,590,591,592,593,0,0,0,572,574,575,578,581,585,589,592,596,599,602,605,609,612,615,616,617,618,0,0,0,0,0,0,0,0,0,543,543,543,543,543,543,542,542,543,543,542,0,0,643,649,653,654,654,655,656,657,657,657,657,657,657,657,657,657,657,657,658,658,659,661,663,665,667,669,672,674,676,679,681,684,687,688,690,690,691,691,691,691,692,692,692,0,0,0,650,651,652,654,655,657,658,659,660,660,664,719,717,715,713,711,709,707,706,705,704,703,703,702,701,700,699,698,697,697,697,699,701,704,708,711,713,715,716,716,0,0,661,662,661,660,659,659,658,657,655,653,650,648,647,646,645,645,645,680,683,684,684,684,684,682,680,678,676,674,673,673,674,676,679,682,685,687,689,690,690,689,689,688,686,685,684,682,681,680,678,677,676,675,674,674,675,675,676,677,677,677,676,675,675,674,673,673,674,675,676,679,681,683,686,688,690,691,692,693,693,693,692,692,692,691,691,690,690,689,687,685,683,681,679,678,678,677,677,677,677,677,676,676,676,677,677,678,679,680,680,681,681,681,681,681,681,681,681,681,682,682,682,682,682,682,681,681,680,680,680,680,681,681,682,683,684,685,685,686,686,686,686,685,685,685,684,684,684
0,0,0,0,0,0,0,0,0,0,0,0,0,0,0,0,0,0,0,0,0,0,0,0,0,0,0,0,0,0,0,0,668,670,671,672,674,676,678,680,683,685,688,690,692,694,695,695,695,695,696,696,697,699,700,701,701,702,702,701,701,701,701,700,700,0,693,0,0,0,0,0,0,546,547,546,546,545,545,545,546,547,548,549,550,550,549,549,549,549,550,552,557,562,563,562,561,560,558,557,555,553,552,550,548,546,545,544,544,545,545,545,546,546,547,547,548,549,550,551,552,553,554,556,557,559,560,562,564,567,569,572,574,576,579,580,582,583,585,586,587,588,590,591,592,593,0,0,0,573,574,576,578,581,585,589,592,596,599,602,605,609,612,614,616,617,617,0,0,0,0,0,0,0,0,545,543,544,543,543,543,543,0,542,543,543,0,0,0,647,650,652,654,654,655,656,657,657,657,657,657,657,657,657,657,657,657,658,658,659,661,663,665,667,670,672,675,677,680,682,685,687,689,690,690,691,691,691,692,692,692,0,0,0,0,651,652,653,654,656,658,659,660,660,660,664,718,717,715,713,711,709,707,706,705,704,704,703,702,701,700,699,698,697,697,698,700,702,706,709,712,715,717,718,0,0,0,660,661,660,660,659,659,658,657,656,654,651,648,647,646,645,645,645,0,682,685,685,685,684,682,680,678,676,674,673,674,675,677,680,683,685,688,689,690,690,689,689,687,686,685,683,682,681,679,678,677,676,675,674,674,675,676,676,677,677,677,676,675,675,674,674,674,674,675,677,679,682,684,687,689,691,692,693,693,693,693,692,692,692,692,691,691,690,688,687,685,683,681,680,679,678,678,677,677,677,677,677,677,677,677,678,679,680,680,681,681,682,682,682,681,681,681,681,682,682,682,683,682,682,682,681,681,680,680,680,680,681,682,683,684,685,685,686,686,686,686,686,685,685,685,684,684,684
0,0,0,0,0,0,0,0,0,0,0,0,0,0,0,0,0,0,0,0,0,0,0,0,0,0,0,0,0,0,0,0,0,670,671,672,674,676,678,680,682,685,687,690,692,693,694,695,695,695,695,696,697,698,700,701,701,702,702,702,701,701,701,700,699,0,0,0,0,0,0,0,0,545,547,546,545,545,545,545,546,547,547,548,548,548,548,547,547,548,549,551,560,565,565,565,563,561,559,557,556,554,552,550,548,546,546,545,545,545,546,546,547,547,548,548,549,550,551,551,552,553,554,556,557,558,560,561,563,565,567,570,572,575,577,579,581,583,584,585,586,588,589,591,592,593,0,0,0,0,575,577,579,582,585,589,592,596,599,602,606,609,612,614,615,0,0,0,0,0,0,0,0,0,0,545,544,544,544,543,543,543,0,543,543,0,0,0,0,648,649,651,653,654,655,656,657,657,657,657,657,657,657,657,657,657,657,657,658,660,661,663,665,668,670,673,676,678,681,683,686,688,689,690,691,691,691,692,692,692,692,0,0,0,650,651,652,654,656,658,659,661,661,661,660,719,718,716,714,712,710,708,707,706,705,704,704,703,702,701,700,699,698,697,697,699,701,704,707,710,713,716,718,719,0,0,0,660,660,660,660,659,659,659,658,656,654,651,648,647,646,645,645,645,644,683,686,686,685,684,682,680,678,675,674,673,674,676,678,681,684,686,688,690,690,690,689,688,687,686,685,683,682,680,679,678,677,676,675,675,675,675,676,677,677,677,677,676,675,675,674,674,674,675,676,678,680,683,685,688,690,691,692,693,693,693,693,693,692,692,692,691,691,690,688,687,685,683,681,680,679,678,678,678,678,678,677,677,677,678,678,679,680,680,681,682,682,682,682,682,682,682,682,682,682,683,683,683,683,682,682,681,681,680,680,680,681,681,682,683,684,685,686,686,686,686,686,686,685,685,685,684,684,684
0,0,0,0,0,0,0,0,0,0,0,0,0,0,0,0,0,0,0,0,0,0,0,0,0,0,0,0,0,0,0,0,0,672,671,673,675,677,678,680,682,685,687,690,692,693,694,695,695,695,695,696,697,698,700,701,702,702,702,702,701,701,701,700,699,695,692,0,0,0,0,0,0,0,544,545,545,545,545,545,545,546,546,547,547,546,546,546,545,546,546,549,568,568,568,567,566,563,561,558,556,554,552,550,548,547,546,546,546,546,547,548,548,549,549,550,551,551,552,553,554,555,555,556,557,558,560,561,562,564,566,568,570,573,575,578,580,582,583,585,586,588,589,591,592,593,0,0,0,575,576,578,579,582,585,589,592,596,599,602,605,608,612,614,615,0,0,0,0,0,0,0,0,0,0,544,544,544,544,544,543,543,543,543,543,0,0,0,650,647,649,651,652,654,655,656,657,657,657,657,657,657,657,656,656,657,657,658,658,660,662,664,666,669,671,674,677,679,682,684,687,688,689,690,691,691,692,692,692,693,692,0,0,0,651,652,653,655,657,659,661,663,663,660,720,719,717,716,714,712,710,708,707,706,705,704,704,703,702,701,700,699,698,697,698,699,702,705,708,711,714,717,719,720,0,0,0,660,660,660,660,659,659,659,659,657,655,650,648,647,646,645,645,646,644,686,687,687,686,684,682,680,677,675,674,674,674,676,679,682,685,687,689,690,690,690,689,688,687,686,684,683,681,680,679,678,677,676,675,675,675,676,676,677,677,677,677,676,675,675,674,674,674,675,677,679,681,684,686,689,691,692,693,693,694,693,693,693,692,692,692,691,691,690,688,686,684,682,681,680,679,679,679,678,678,678,678,678,678,678,679,680,680,681,682,682,682,682,682,682,682,682,682,682,683,683,683,683,683,683,682,681,681,680,680,681,681,682,683,684,685,686,686,686,687,686,686,686,685,685,684,684,684,684
0,0,0,0,0,0,0,0,0,0,0,0,0,0,0,0,0,0,0,0,0,0,0,0,0,0,0,0,0,0,0,0,0,0,672,673,675,677,678,680,682,684,687,689,691,693,694,694,694,694,695,695,697,698,700,701,702,702,702,702,702,701,701,700,700,695,692,0,0,0,0,0,0,544,545,545,545,544,544,544,545,545,545,546,546,545,545,544,544,544,544,544,566,571,571,570,569,565,562,559,557,554,552,550,549,547,547,546,547,547,548,549,550,550,551,552,552,553,554,554,555,556,557,558,559,559,560,561,562,563,565,566,568,571,573,576,578,581,582,584,586,587,589,591,592,594,595,0,0,575,577,578,580,582,585,589,592,596,599,602,605,608,611,614,615,0,0,0,0,0,0,0,0,0,546,544,544,544,544,543,543,543,543,543,0,0,0,0,645,646,648,650,652,653,655,656,656,657,657,657,657,657,657,656,656,657,657,658,659,660,662,664,667,669,672,675,678,681,683,685,688,689,690,691,691,691,692,692,693,693,0,0,0,651,652,653,655,656,659,661,663,665,666,720,719,718,717,715,713,711,709,708,706,706,705,704,703,703,702,701,700,699,698,698,698,700,703,706,709,713,715,718,719,721,0,0,660,659,660,660,660,660,660,659,659,0,0,646,647,647,646,645,645,645,644,688,688,687,686,684,682,679,677,675,674,674,675,677,680,683,686,688,689,690,690,690,689,688,687,685,684,682,681,680,679,677,676,675,675,675,675,676,676,677,677,677,676,676,675,675,674,674,675,676,678,680,682,685,687,690,691,693,693,694,694,693,693,693,692,692,692,692,691,690,688,686,684,682,681,680,680,679,679,679,678,678,678,678,678,679,680,680,681,682,682,683,683,682,682,682,682,682,682,682,683,683,684,684,683,683,682,681,681,681,681,681,681,682,683,684,685,686,686,687,687,687,686,686,686,685,684,684,684,683
0,0,0,0,0,0,0,0,0,0,0,0,0,0,0,0,0,0,0,0,0,0,0,0,0,0,0,0,0,0,0,0,0,0,0,674,676,677,679,680,682,684,686,689,691,693,694,694,694,694,695,695,697,698,700,701,702,702,702,702,702,701,701,701,700,0,0,0,0,0,0,0,0,545,545,545,544,544,544,544,544,544,544,544,544,544,543,543,542,542,542,543,567,575,574,573,572,567,563,559,556,554,552,550,548,547,547,547,547,548,549,550,551,552,552,553,554,555,555,556,557,558,559,560,560,561,562,562,562,564,564,565,567,569,571,574,577,579,582,584,586,587,589,591,593,594,596,0,0,0,577,579,580,582,585,589,592,596,599,602,605,608,611,613,614,0,0,0,0,0,0,0,0,0,546,545,544,544,543,543,543,543,543,543,0,0,0,0,644,645,647,649,651,653,655,656,656,657,657,657,657,657,656,656,656,657,657,658,659,661,663,665,668,670,673,676,680,682,685,688,689,690,690,691,691,692,692,692,693,693,0,0,0,652,653,654,656,658,661,663,666,669,669,719,718,717,716,714,712,710,709,707,706,705,705,704,703,703,702,701,700,699,698,698,699,701,704,707,710,714,716,718,720,721,0,0,660,659,660,660,660,660,660,660,659,0,645,646,647,647,646,645,645,645,690,689,688,688,686,684,682,679,677,675,674,674,676,678,681,684,687,689,690,691,690,690,689,688,686,685,683,682,681,679,678,677,676,675,675,675,676,676,677,677,677,677,676,676,675,675,674,674,675,677,679,681,683,686,689,691,692,693,694,694,694,694,693,693,693,692,692,692,691,690,688,686,684,682,681,680,680,680,679,679,679,679,678,679,679,680,680,681,682,682,683,683,683,683,682,682,682,682,682,683,683,684,684,684,684,683,682,682,681,681,681,681,682,683,684,685,685,686,687,687,687,687,686,686,686,685,684,684,684,683
0,0,0,0,0,0,0,0,0,0,0,0,0,0,0,0,0,0,0,0,0,0,0,0,0,0,0,0,0,0,0,0,0,0,0,0,676,678,679,680,681,683,686,689,691,692,693,694,694,694,694,695,697,698,700,701,702,702,702,702,702,702,701,701,700,0,0,0,0,0,0,0,0,544,545,545,544,544,544,543,543,543,543,543,543,542,542,541,541,541,541,543,582,578,578,577,576,577,0,559,556,552,551,549,548,547,547,547,548,549,550,551,552,553,554,554,555,556,557,558,559,560,561,562,563,563,564,564,564,564,564,564,566,567,570,572,575,578,581,583,585,587,590,591,593,595,596,597,0,0,577,579,581,583,585,589,592,596,599,603,605,608,610,613,614,0,0,0,0,0,0,0,0,0,0,544,545,544,543,543,543,0,543,543,0,0,0,641,644,644,646,649,651,653,655,656,657,657,657,657,657,657,656,656,656,657,658,659,660,662,664,666,669,671,674,679,682,684,686,689,690,690,691,691,691,692,692,693,693,693,0,0,652,653,654,656,658,660,663,666,669,674,684,715,717,716,715,713,712,710,708,707,706,705,705,704,703,702,702,700,699,699,698,698,700,702,704,708,711,715,717,719,0,0,0,0,0,659,660,660,660,660,660,660,659,658,0,647,647,647,646,645,646,0,690,690,689,688,686,684,681,679,676,675,674,675,677,679,682,685,688,689,690,691,690,690,689,688,686,685,683,682,680,679,678,677,676,675,675,676,676,677,677,677,677,677,676,676,675,675,675,675,676,678,680,682,685,687,690,692,693,694,694,694,694,694,693,693,693,692,692,692,691,690,688,686,684,682,681,681,680,680,680,679,679,679,679,679,680,680,681,682,682,683,683,683,683,683,683,682,682,682,683,683,684,684,685,685,684,683,683,682,681,681,681,682,682,683,684,685,686,686,687,687,687,687,686,686,686,685,684,684,683,683
0,0,0,0,0,0,0,0,0,0,0,0,0,0,0,0,0,0,0,0,0,0,0,0,0,0,0,0,0,0,0,0,0,0,0,0,0,678,679,680,681,682,685,691,693,692,693,693,694,694,694,695,697,699,700,701,702,703,703,702,702,702,701,701,701,0,0,0,0,0,0,0,0,544,545,544,544,543,543,543,543,543,543,542,542,541,540,540,540,539,540,585,583,581,580,580,579,581,0,0,552,550,549,547,546,546,547,547,548,549,550,551,552,553,554,555,556,557,558,559,560,562,563,564,565,566,566,567,567,566,565,564,565,566,568,571,574,577,580,582,585,587,590,592,593,595,596,598,598,594,578,580,581,583,586,589,592,596,600,603,606,608,610,613,614,0,0,0,0,0,0,0,0,0,546,545,545,545,543,0,0,0,0,544,0,0,0,642,642,643,646,649,651,653,655,656,657,657,657,657,657,657,656,656,657,657,658,659,661,663,665,668,670,673,676,681,684,686,688,690,690,691,691,691,692,692,692,692,693,0,0,0,653,654,655,657,660,662,666,669,673,682,689,714,715,715,714,713,711,709,708,707,706,705,705,704,703,702,701,700,699,699,698,699,700,703,705,708,713,716,718,719,0,0,0,0,0,661,660,660,660,660,660,660,660,0,649,647,648,647,647,0,0,0,690,690,689,688,686,683,681,678,676,675,675,676,678,681,684,686,688,690,691,691,690,690,689,687,686,684,683,681,680,679,677,676,676,675,675,676,676,677,677,677,677,677,676,676,675,675,675,675,677,679,681,684,686,689,691,693,694,694,695,695,694,694,693,693,693,693,692,692,691,690,688,686,684,682,681,681,681,680,680,679,679,679,679,679,680,681,682,682,683,683,684,683,683,683,683,682,682,683,683,684,684,685,685,685,685,684,683,682,682,682,682,682,683,684,684,685,686,687,687,687,687,687,687,686,686,685,684,684,684,683
0,0,0,0,0,0,0,0,0,0,0,0,0,0,0,0,0,0,0,0,0,0,0,0,0,0,0,0,0,0,0,0,0,0,0,0,0,0,0,680,682,682,0,0,0,0,542,542,542,542,694,696,697,699,700,701,702,703,543,544,702,702,702,702,544,544,544,544,544,0,543,543,543,544,544,544,543,543,543,542,542,542,542,541,541,540,539,539,539,539,540,585,584,582,582,581,581,582,584,0,551,548,547,546,545,545,546,547,548,549,550,551,553,554,555,556,557,558,559,560,561,563,565,567,568,569,569,569,569,568,566,564,564,565,567,569,572,575,579,582,585,587,590,592,594,595,597,598,0,597,579,580,581,583,586,588,591,595,600,603,606,608,610,613,614,0,0,0,0,0,0,0,0,0,547,546,545,545,0,0,0,0,0,0,0,0,0,0,641,643,646,649,651,654,655,656,657,657,657,657,657,657,657,657,657,658,659,660,662,665,667,669,672,675,678,683,685,688,689,690,691,691,691,691,691,692,692,692,692,0,0,0,654,655,656,659,661,664,668,672,681,689,695,713,714,714,713,712,710,709,708,706,706,705,704,704,703,702,701,700,699,699,699,700,701,704,707,710,714,717,719,721,0,0,0,0,661,660,660,660,660,661,661,661,660,656,652,648,648,647,647,0,0,691,690,690,689,687,685,683,680,678,676,675,675,677,679,682,685,687,689,690,691,691,690,689,688,687,685,684,682,681,680,678,677,676,676,675,676,676,677,677,677,677,677,677,676,676,675,675,675,676,678,680,682,685,688,690,692,694,695,695,695,695,694,694,693,693,693,693,692,692,691,689,687,685,684,682,682,681,681,680,680,680,679,679,680,680,681,681,682,683,683,684,684,684,683,683,683,683,683,683,683,684,685,685,686,686,685,684,684,683,682,682,682,683,683,684,685,686,686,687,687,687,687,687,687,686,686,685,685,684,684,683
0,0,0,0,0,0,0,0,0,0,0,0,0,0,0,0,0,0,0,0,0,0,0,0,0,0,0,0,0,0,0,0,0,0,0,0,0,0,0,0,0,0,0,542,543,542,542,543,543,543,543,543,542,542,541,542,542,544,544,544,544,544,544,544,544,544,544,544,544,543,543,544,544,544,544,543,543,542,542,542,542,541,541,540,540,539,539,538,538,539,585,585,583,582,582,581,581,583,0,551,550,547,544,544,544,544,545,546,548,549,550,551,552,553,554,555,557,558,559,561,562,565,567,569,570,571,571,571,571,570,570,564,564,564,566,568,571,574,577,581,584,587,590,592,594,595,596,598,599,598,579,581,582,584,586,588,591,595,601,603,606,608,610,612,613,0,0,0,0,0,0,0,0,0,547,546,546,545,0,0,0,0,0,0,0,0,0,0,642,643,647,650,652,654,656,657,657,658,658,657,657,657,657,657,657,658,659,661,663,666,668,671,673,677,681,684,687,689,690,691,692,692,692,691,691,691,691,692,692,0,0,654,655,656,658,660,663,666,670,674,680,696,704,712,714,714,713,711,710,709,707,706,706,705,704,704,703,702,701,700,699,699,699,700,702,705,708,711,715,718,721,724,0,0,0,661,661,660,660,660,661,661,661,661,660,659,649,648,647,647,0,641,640,691,690,690,689,687,685,682,679,677,676,675,676,678,680,683,686,688,690,691,691,691,690,689,688,687,685,684,682,681,679,678,677,676,676,676,676,676,677,677,677,677,677,676,676,676,675,675,676,677,679,681,683,686,689,691,693,694,695,696,695,695,694,694,693,693,693,693,692,691,690,689,687,685,684,683,682,682,681,681,680,680,680,680,680,680,681,682,683,683,684,684,684,684,684,683,683,683,683,683,684,685,685,686,686,686,686,685,684,683,683,683,683,683,684,685,686,686,687,687,687,687,687,687,687,686,686,685,685,684,684,684
0,0,0,0,0,0,0,0,0,0,0,0,0,0,0,0,0,0,0,0,0,0,0,0,0,0,0,0,0,0,0,0,0,0,0,0,0,0,0,0,0,0,542,543,543,542,542,542,543,543,543,543,543,543,543,543,543,543,544,544,544,544,544,544,544,544,544,544,544,543,544,544,544,544,543,543,542,542,542,541,541,541,540,540,539,539,538,538,537,585,584,583,582,581,581,580,580,0,0,551,549,545,543,543,543,543,544,545,547,548,549,551,552,553,554,555,556,557,559,561,563,565,568,570,572,573,573,573,573,572,571,565,564,564,565,567,569,573,576,580,583,587,589,592,594,595,597,598,599,597,581,582,582,584,586,589,591,595,601,604,606,608,610,612,613,0,0,0,0,0,0,0,0,547,547,546,546,545,0,0,0,0,0,0,0,0,0,0,642,644,648,651,653,655,656,657,658,658,658,658,657,657,657,657,658,659,660,662,664,667,669,672,675,679,682,685,688,690,691,692,692,692,692,692,691,691,691,691,0,657,656,656,656,657,659,662,665,668,672,675,686,704,708,713,714,714,713,711,710,708,707,706,706,705,704,704,703,702,701,700,699,699,700,701,703,706,709,713,716,720,724,725,0,0,0,661,660,660,660,660,661,661,663,663,0,0,652,648,647,646,644,643,641,691,691,690,689,687,684,681,679,677,675,676,677,679,682,684,687,689,691,691,691,691,690,689,688,686,685,683,682,681,679,678,677,676,676,676,676,677,677,677,677,677,677,676,676,676,675,676,676,678,679,682,685,687,690,692,694,695,696,696,696,695,695,694,694,693,693,693,692,691,690,688,686,685,684,683,682,682,682,681,681,680,680,680,680,681,682,683,683,684,684,685,684,684,684,683,683,683,683,684,684,685,686,686,687,687,686,686,685,684,683,683,683,684,684,685,686,687,687,687,688,688,687,687,687,686,686,685,685,684,684,684
0,0,0,0,0,0,0,0,0,0,0,0,0,0,0,0,0,0,0,0,0,0,0,0,0,0,0,0,0,0,0,0,0,0,0,0,0,0,0,0,0,0,542,543,543,542,542,542,542,542,542,543,543,543,543,543,543,543,544,544,544,544,544,544,544,544,544,544,544,543,543,544,543,543,543,543,542,541,541,541,541,540,539,539,539,538,538,538,538,537,582,581,580,579,579,578,578,576,0,551,548,545,541,541,541,542,543,544,546,547,548,550,551,552,553,554,555,557,558,560,563,566,569,571,573,574,574,574,574,573,572,571,567,564,565,566,568,572,575,579,583,586,589,592,594,595,597,598,599,0,584,582,583,585,587,590,592,597,600,603,606,608,610,612,612,0,0,0,0,0,0,0,0,547,547,546,546,546,0,0,0,0,0,0,0,0,0,640,645,647,650,652,654,656,657,658,658,658,658,658,658,657,657,657,658,660,661,663,665,668,670,673,676,680,683,686,689,691,692,692,692,692,692,691,691,691,691,0,657,657,656,656,657,658,661,664,667,669,674,681,711,709,711,714,714,714,713,711,710,708,707,706,706,705,704,704,703,702,701,700,699,699,700,702,704,707,710,714,718,721,726,728,0,0,0,661,660,660,660,660,661,661,664,665,0,654,648,648,646,645,644,643,641,691,691,690,688,686,684,681,678,676,675,676,678,680,683,686,688,690,691,692,691,691,690,689,688,686,685,683,682,680,679,678,677,676,676,676,676,677,677,677,677,677,677,676,676,676,676,676,677,678,680,683,686,689,691,693,695,696,696,696,696,695,695,694,694,693,693,693,692,691,689,688,686,685,684,683,683,682,682,681,681,680,680,680,681,682,682,683,684,684,685,685,685,684,684,684,683,683,684,684,685,686,687,687,687,687,687,686,686,685,684,684,684,684,685,686,686,687,688,688,688,688,688,687,687,686,686,685,685,684,684,684
0,0,0,0,0,0,0,0,0,0,0,0,0,0,0,0,0,0,0,0,0,0,0,0,0,0,0,0,0,0,0,0,0,0,0,0,0,0,0,0,0,0,542,543,542,542,542,542,542,542,542,542,543,543,543,543,543,543,544,544,544,544,544,544,544,544,543,543,543,543,543,543,543,543,543,542,542,541,541,540,539,539,539,538,538,538,538,539,539,0,580,579,577,576,576,575,575,575,576,0,0,0,539,539,540,541,542,543,544,546,547,548,549,550,552,553,554,556,557,560,562,565,568,571,573,574,574,574,574,573,571,570,567,564,564,566,568,571,575,578,582,586,589,592,594,595,597,598,0,581,581,582,583,585,587,590,593,597,600,603,606,608,610,611,612,0,0,0,0,0,0,559,0,547,547,547,546,546,0,0,0,0,0,0,0,0,0,641,645,649,651,653,655,656,657,658,658,659,659,658,658,658,658,658,659,661,663,664,666,669,671,674,677,681,684,687,690,691,692,693,693,692,692,691,691,690,689,659,657,657,657,657,658,660,662,667,670,669,675,708,712,711,713,715,715,714,713,711,710,709,707,707,706,705,704,704,703,702,701,700,700,700,701,703,705,708,712,715,719,723,727,729,0,0,0,661,660,660,660,661,661,661,664,664,660,0,647,647,646,645,644,643,641,691,691,690,688,686,683,680,678,676,676,676,678,681,684,687,689,691,692,692,692,691,690,689,687,686,684,683,682,680,679,678,677,676,676,676,676,677,677,677,677,677,677,676,676,676,676,676,678,679,682,684,687,690,692,694,695,696,697,696,696,695,695,694,694,693,693,692,692,690,689,687,686,684,684,683,683,683,682,681,681,680,680,681,681,682,683,684,684,685,685,685,685,684,684,684,684,684,684,685,686,686,687,688,688,688,688,687,686,685,685,684,684,685,686,686,687,687,688,688,688,688,688,687,687,686,686,685,685,684,684,684
0,0,0,0,0,0,0,0,0,0,0,0,0,0,0,0,0,0,0,0,0,0,0,0,0,0,0,0,0,0,0,0,0,0,0,0,0,0,0,0,0,0,542,543,542,542,542,542,542,542,542,542,542,543,543,543,543,543,543,544,544,544,544,544,543,543,543,543,543,543,543,543,543,543,542,542,541,541,540,540,539,539,538,538,538,538,539,540,541,544,578,577,573,573,572,571,571,572,0,0,0,535,537,538,538,539,540,542,543,544,546,547,548,549,550,552,553,554,556,558,561,564,568,570,572,573,574,574,573,572,570,568,566,564,564,565,567,570,574,578,582,586,589,592,594,596,597,598,598,582,581,582,583,585,588,591,594,597,600,603,605,607,609,610,611,0,0,0,0,0,0,556,548,548,547,547,547,547,0,0,0,0,0,0,0,0,0,644,647,650,652,654,656,657,658,658,659,659,659,658,658,658,658,658,659,662,665,666,668,670,673,675,679,682,685,688,690,692,693,693,693,693,692,691,691,689,688,659,657,657,657,657,659,661,665,670,674,677,681,708,712,713,715,716,716,715,713,712,710,709,708,707,706,705,704,704,703,702,701,700,700,700,701,704,706,709,713,716,720,724,728,0,0,0,662,661,661,661,661,661,661,661,664,664,662,657,654,647,647,646,644,0,0,691,691,690,688,686,683,680,677,676,676,677,679,682,685,687,690,691,692,692,692,691,690,689,687,686,684,683,681,680,679,678,677,676,676,676,676,677,677,677,677,677,677,676,676,676,676,677,678,680,683,685,688,691,693,695,696,697,697,697,696,696,695,694,694,693,693,692,691,690,688,687,685,684,684,683,683,683,682,682,681,681,681,681,682,682,683,684,685,685,685,685,685,685,684,684,684,684,685,686,686,687,688,688,688,688,688,688,687,686,685,685,685,686,686,687,687,688,688,688,688,688,688,687,687,686,686,685,685,684,684,684
0,0,0,0,0,0,0,0,0,0,0,0,0,0,0,0,0,0,0,0,0,0,0,0,0,0,0,0,0,0,0,0,0,0,0,0,0,0,0,0,0,0,543,543,542,542,542,542,542,542,542,542,542,543,543,543,543,543,543,543,543,543,543,543,543,543,543,543,543,543,543,543,543,543,542,541,541,540,540,539,539,538,538,538,538,539,540,541,543,549,553,556,565,566,566,565,567,570,0,0,535,535,536,536,537,538,539,540,542,543,544,545,546,548,549,550,552,553,555,557,559,562,565,569,570,571,572,572,571,570,568,567,565,564,564,565,567,570,574,578,582,586,589,592,594,596,597,598,599,598,580,582,583,585,588,591,594,597,600,603,605,607,609,610,610,0,0,0,0,0,551,550,548,548,547,547,547,0,0,0,0,0,0,0,0,0,0,646,648,651,653,655,657,658,658,659,659,659,659,659,658,658,658,0,662,664,667,668,670,672,674,676,679,683,686,689,691,692,693,694,693,693,692,692,690,689,0,658,657,657,657,658,660,663,667,672,679,685,705,707,712,714,716,716,716,715,713,712,710,709,708,707,706,705,705,704,703,702,701,700,700,701,702,704,707,710,714,717,720,724,730,0,0,0,662,661,661,661,661,661,661,661,665,665,662,656,655,0,645,645,0,0,0,691,691,689,688,685,682,679,677,676,676,678,680,683,686,688,690,692,692,692,692,691,690,688,687,686,684,683,681,680,679,678,677,676,676,676,677,677,677,677,677,677,677,676,676,676,677,678,679,681,684,687,689,692,694,695,696,697,697,697,696,696,695,694,694,693,693,692,690,689,687,686,685,684,684,683,683,683,682,682,681,681,681,681,682,683,684,685,685,686,686,685,685,685,684,684,685,685,685,686,687,688,688,689,689,689,688,688,687,687,686,686,686,686,687,688,688,688,688,688,688,688,688,688,687,686,686,685,685,684,684,684
0,0,0,0,0,0,0,0,0,0,0,0,0,0,0,0,0,0,0,0,0,0,0,0,0,0,0,0,0,0,0,0,0,0,0,0,0,0,0,0,0,0,543,543,543,542,542,542,542,542,542,542,543,543,543,543,543,543,543,543,543,543,543,543,543,543,543,543,543,543,543,543,543,542,542,541,540,540,539,539,538,538,538,538,538,539,540,542,544,548,552,554,557,558,558,562,561,0,0,538,535,535,535,535,536,537,538,539,540,542,543,544,545,546,548,549,550,552,554,555,558,560,561,565,567,568,569,569,568,567,566,565,564,563,563,565,567,570,574,578,582,586,589,592,594,596,597,598,598,598,0,582,583,585,588,591,594,598,601,603,605,607,608,609,610,0,0,0,0,549,549,549,548,548,548,547,547,0,0,548,0,547,547,0,0,0,647,647,650,652,655,656,657,658,659,659,659,659,659,659,659,658,658,657,673,673,670,671,672,673,675,677,680,683,686,689,691,693,694,694,694,693,693,692,691,688,662,659,657,657,657,659,661,666,669,674,683,689,698,707,711,714,716,717,716,715,713,712,710,709,708,707,706,705,705,704,703,702,701,700,701,701,703,705,708,712,715,718,721,0,732,0,0,0,662,662,661,662,662,662,0,670,670,0,0,0,0,0,0,0,0,0,691,691,691,689,687,685,681,678,677,676,676,678,681,684,687,689,691,692,692,692,692,691,690,688,687,685,684,683,681,680,679,678,677,676,676,676,677,677,677,677,677,677,677,676,676,676,677,678,680,682,685,688,690,693,695,696,697,697,697,697,696,696,695,694,694,693,692,691,690,688,686,685,684,684,684,684,683,683,682,681,681,681,681,681,682,683,684,685,686,686,686,686,685,685,685,685,685,685,686,687,687,688,688,689,689,689,688,688,688,687,687,687,687,687,688,688,688,689,689,689,689,688,688,688,687,687,686,685,685,685,684,684
0,0,0,0,0,0,0,0,0,0,0,0,0,0,0,0,0,0,0,0,0,0,0,0,0,0,0,0,0,0,0,0,0,0,0,0,0,0,0,0,0,0,0,543,543,543,542,542,542,542,542,542,543,543,543,543,543,543,543,543,543,543,543,543,543,543,543,543,543,543,543,543,543,542,542,541,540,540,539,539,538,538,538,538,539,539,541,542,544,548,550,552,554,555,554,554,556,0,539,537,535,535,535,535,535,536,537,538,539,541,542,543,544,545,547,548,549,551,552,554,556,558,560,562,564,565,566,566,565,564,564,563,563,563,563,565,567,570,574,578,582,586,590,592,594,596,597,598,599,599,582,582,583,585,588,591,595,598,601,603,605,607,608,609,609,0,0,0,0,549,549,549,548,548,548,548,547,547,0,0,547,547,547,547,0,0,0,649,653,655,656,657,658,659,659,660,660,660,660,659,659,659,659,659,675,674,672,672,673,674,676,678,681,684,686,689,692,693,694,694,694,694,693,692,691,689,663,659,657,657,658,659,661,667,671,676,685,691,699,706,711,715,717,717,716,715,713,712,710,709,708,707,706,706,705,704,703,702,701,701,701,702,704,706,709,713,716,719,722,725,0,0,0,0,662,662,662,662,662,661,669,671,673,676,676,676,0,0,0,0,0,0,691,691,690,689,687,684,681,678,676,676,677,679,682,685,688,690,691,692,693,692,691,691,689,688,687,685,684,682,681,680,679,678,677,677,677,677,677,677,678,678,677,677,677,677,677,677,678,679,681,683,686,689,691,694,695,696,697,697,697,697,696,695,695,694,694,693,692,690,688,687,685,685,684,684,684,684,683,683,682,682,681,681,681,682,683,684,685,685,686,686,686,686,685,685,685,685,685,686,686,687,687,688,688,688,688,688,688,688,688,687,687,687,688,688,688,689,689,689,689,689,689,689,688,688,687,687,686,685,685,685,684,684
0,0,0,0,0,0,0,0,0,0,0,0,0,0,0,0,0,0,0,0,0,0,0,0,0,0,0,0,0,0,0,0,0,0,0,0,0,0,644,644,0,0,0,0,0,0,0,0,542,543,542,543,543,543,543,543,543,542,542,542,542,542,542,542,542,542,543,543,543,543,543,543,543,542,542,541,540,540,539,539,538,538,538,538,539,540,541,543,545,547,549,551,552,552,551,550,548,542,539,537,535,534,534,534,535,536,537,538,539,540,541,542,543,545,546,547,549,550,551,553,554,556,557,559,561,562,562,563,563,562,562,562,562,562,563,565,567,571,575,579,583,587,590,593,595,596,597,598,596,582,582,582,583,585,588,592,595,598,601,603,605,607,608,608,609,0,0,0,0,549,549,549,548,548,548,548,548,547,547,547,547,547,547,547,0,0,0,655,655,657,657,658,659,659,660,660,660,660,660,660,660,660,661,662,670,673,673,673,674,675,677,679,681,683,686,689,692,693,694,694,694,694,693,692,690,0,662,0,657,657,657,659,662,666,672,678,683,692,700,706,711,715,717,717,716,715,713,712,710,709,708,707,706,706,705,704,703,702,701,701,702,703,705,707,710,714,717,720,723,728,0,0,0,0,663,662,663,663,663,663,667,673,675,677,678,677,0,0,0,0,0,0,691,691,690,688,686,684,680,678,676,676,677,680,683,686,688,690,692,693,693,692,691,690,689,688,687,685,684,682,681,680,679,678,677,677,677,677,678,678,678,678,677,677,677,677,677,677,678,680,682,684,687,690,692,694,696,697,697,697,697,697,696,695,695,694,693,692,691,689,687,686,685,684,684,684,684,684,683,683,682,682,681,681,682,682,683,684,685,686,686,686,686,686,686,685,685,685,686,686,687,687,687,688,688,688,688,687,687,687,687,687,687,688,688,688,689,689,689,689,689,689,689,689,688,688,687,687,686,685,685,684,684,684
0,0,0,0,0,0,0,0,0,0,0,0,0,0,0,0,0,0,0,0,0,0,0,0,0,0,0,0,0,0,0,0,0,0,0,0,0,644,643,640,640,642,641,0,0,0,0,0,0,0,543,543,543,543,543,543,542,542,542,542,542,542,542,542,542,542,542,543,543,543,543,543,543,543,542,541,540,540,539,539,538,538,538,539,539,540,542,543,545,547,548,549,550,549,548,547,545,541,538,536,535,534,534,534,534,535,536,537,538,539,540,541,543,544,545,547,548,549,551,552,553,554,555,557,558,559,559,560,560,560,560,560,561,562,563,565,568,571,575,580,583,587,590,593,595,596,597,598,598,597,582,582,583,586,589,592,595,598,601,604,605,607,608,608,608,0,0,0,549,549,549,549,548,548,548,548,548,547,547,547,547,547,547,0,0,0,659,658,657,658,658,659,659,660,660,660,661,660,661,661,661,661,662,664,669,672,673,674,675,676,677,679,681,683,685,688,694,695,695,695,695,694,695,693,0,0,0,0,657,657,658,659,662,665,674,679,684,690,700,706,712,715,717,717,717,715,713,712,710,709,708,707,706,706,705,704,703,702,702,702,702,704,706,708,711,715,718,721,726,729,0,0,0,0,663,663,663,664,664,665,669,676,677,679,679,0,0,0,0,0,0,0,692,691,690,688,686,683,679,677,676,676,678,681,684,687,689,691,692,693,693,692,691,690,689,688,686,685,683,682,681,680,679,678,678,677,678,678,678,678,678,678,678,677,677,677,677,678,679,680,683,685,688,691,693,695,696,697,698,698,697,697,696,695,695,694,693,692,690,688,686,685,684,683,683,684,684,684,683,683,682,682,682,682,682,683,684,685,686,686,687,687,687,686,686,686,686,686,686,686,687,687,687,687,687,687,687,686,686,686,687,687,687,688,688,689,689,689,690,690,690,689,689,689,688,688,687,687,686,685,685,684,684,684
0,0,0,0,0,0,0,0,0,0,0,0,0,0,0,0,0,0,0,0,0,0,0,0,0,0,0,0,0,0,0,0,0,0,0,0,644,643,640,640,639,640,639,638,638,0,0,0,0,0,0,543,543,543,543,542,542,542,541,541,541,541,541,541,541,542,542,543,543,543,544,544,543,543,542,541,541,540,539,539,539,538,539,539,539,540,542,543,545,547,548,548,548,548,546,545,543,539,537,536,534,534,533,534,534,535,536,537,538,539,540,541,542,544,545,546,548,549,550,551,552,553,554,555,556,556,557,557,558,558,559,559,560,561,563,565,568,571,575,580,584,587,590,593,595,596,597,597,597,596,583,582,584,586,589,592,596,599,601,604,605,607,607,608,608,0,0,0,549,549,549,549,549,548,548,548,548,547,547,547,547,547,547,0,0,0,659,659,658,659,659,659,660,660,661,661,661,661,661,661,662,662,663,665,668,671,673,674,675,676,677,679,681,682,684,0,0,0,0,0,0,0,0,0,0,0,0,0,0,658,660,657,0,0,439,437,435,434,434,434,433,433,432,433,432,431,713,711,710,709,708,707,706,706,705,704,703,702,702,702,703,704,707,709,712,715,718,723,725,0,0,0,0,0,663,663,664,665,665,667,668,676,678,680,680,0,0,0,0,0,0,693,692,691,690,688,686,680,678,677,676,677,679,682,685,688,690,692,693,693,693,692,691,690,689,688,686,685,683,682,681,680,679,678,678,678,678,678,678,678,678,678,678,677,677,677,677,678,679,681,684,686,689,692,694,696,697,698,698,698,697,697,696,695,695,694,693,691,689,687,685,684,683,683,683,684,684,684,683,683,682,682,682,682,683,684,685,685,686,687,687,687,687,686,686,686,686,686,686,687,687,687,687,687,686,686,685,685,685,685,686,686,687,688,688,689,689,690,690,690,690,690,689,689,689,688,687,687,686,685,685,684,684,684
0,0,0,0,0,0,0,0,0,0,0,0,0,0,0,0,0,0,0,0,0,0,0,0,0,0,0,0,0,0,0,0,0,0,0,0,643,642,639,638,638,637,637,636,635,634,634,632,0,625,625,626,626,625,625,626,627,541,540,0,541,541,540,541,541,542,542,543,544,544,544,544,544,543,543,542,541,540,540,539,539,539,539,539,540,541,542,543,545,546,547,547,547,546,545,543,541,538,536,535,534,533,533,533,534,535,536,537,538,539,540,541,542,544,545,546,547,549,550,551,551,552,552,553,554,554,555,555,556,556,557,558,559,560,562,564,567,571,575,581,584,588,590,593,595,596,597,597,595,595,583,583,584,586,589,593,596,599,602,604,605,607,607,608,608,0,0,0,549,549,549,549,549,548,548,548,548,548,547,547,548,548,548,0,0,659,659,659,658,659,659,660,660,660,661,661,661,660,661,662,662,663,664,665,668,670,673,674,675,676,677,679,680,682,683,0,0,0,0,0,0,0,0,0,0,0,0,0,0,0,0,438,438,437,437,437,436,435,435,434,434,434,433,433,433,432,431,431,710,709,708,707,706,706,705,704,703,702,702,702,703,705,707,710,713,715,718,723,0,0,0,0,0,664,663,664,664,665,666,668,669,671,676,0,0,0,0,0,0,0,0,694,692,691,689,687,684,680,678,677,676,677,680,683,686,689,691,692,693,693,693,692,691,690,689,687,686,684,683,682,681,680,679,679,678,678,678,678,678,678,678,678,678,677,677,677,678,678,680,682,685,687,690,693,695,696,697,698,698,698,697,696,696,695,695,694,693,691,689,686,684,683,682,683,683,684,684,684,683,683,682,682,682,683,683,684,685,686,687,687,687,687,687,687,686,686,686,686,687,687,687,687,686,686,685,685,684,684,684,684,685,685,686,687,688,689,689,690,690,690,690,690,689,689,689,688,687,687,686,685,684,684,684,683
0,0,0,0,0,0,0,0,0,0,0,0,0,0,0,0,0,0,0,0,0,0,0,0,0,0,0,0,0,0,0,0,0,0,0,0,642,640,637,636,636,635,635,634,634,633,632,631,630,628,627,627,626,625,625,626,626,627,630,0,0,0,543,541,541,542,543,544,544,545,545,545,545,544,543,543,542,541,540,540,539,539,539,539,540,541,542,543,545,546,547,547,546,545,543,541,539,537,536,534,534,533,533,533,534,535,536,537,538,539,540,541,543,544,545,546,547,549,549,550,551,551,551,552,552,552,553,553,554,555,555,556,557,559,560,563,565,570,574,581,585,588,591,593,595,596,597,596,593,590,583,583,585,587,590,593,596,599,602,604,606,607,607,608,608,0,0,548,549,549,549,549,549,548,548,548,548,548,548,548,548,548,0,0,0,657,658,658,659,659,660,660,660,661,661,661,661,662,662,662,663,663,664,666,667,670,672,674,675,676,677,678,680,683,682,0,0,0,0,0,0,0,0,0,0,0,0,0,0,437,437,437,437,437,437,437,436,435,435,434,434,434,433,433,432,432,432,431,431,431,431,431,431,0,0,0,703,703,704,703,704,705,708,710,713,716,718,0,0,0,0,0,0,664,663,664,665,666,667,668,669,670,671,675,0,0,0,0,0,0,0,694,692,691,689,686,683,680,678,677,677,678,681,684,687,690,692,693,694,693,693,692,691,690,689,687,686,684,683,682,681,680,679,679,679,679,679,679,679,678,678,678,678,677,677,677,678,679,681,683,686,688,691,694,695,697,698,698,698,697,697,696,696,695,695,694,692,690,688,686,684,682,682,682,683,684,684,684,683,683,682,682,683,683,684,685,686,687,687,687,687,687,687,687,686,686,686,686,687,687,687,686,686,685,684,684,683,683,683,683,684,685,686,687,688,689,689,690,690,690,690,690,690,689,689,688,687,687,686,685,684,684,683,683
0,0,0,0,0,0,0,0,0,0,0,0,0,0,0,0,0,0,0,0,0,0,0,0,0,0,0,0,0,0,0,0,0,0,0,0,0,0,635,635,634,633,633,632,632,631,631,630,629,628,627,627,626,626,626,627,628,629,631,633,634,641,0,0,0,543,543,544,546,546,546,546,546,545,544,543,542,542,541,540,540,539,539,539,540,540,542,543,544,545,546,546,545,543,542,540,538,536,535,534,533,533,533,533,534,535,536,537,538,539,540,542,543,544,545,546,548,549,549,550,550,550,550,551,551,551,552,552,553,553,554,555,556,557,558,560,562,570,577,582,585,588,591,593,595,596,596,595,592,588,585,584,585,587,590,593,597,600,602,604,606,607,607,607,607,0,0,549,549,549,549,549,549,549,548,548,548,548,548,548,548,548,0,0,0,0,658,658,659,659,660,660,660,661,661,661,661,662,662,662,663,664,664,666,668,670,672,674,675,676,677,678,0,0,0,0,0,0,0,0,0,0,0,0,0,0,0,0,436,437,437,437,437,437,437,437,436,435,435,434,434,433,433,433,432,432,431,431,431,431,431,431,431,431,431,0,0,0,0,0,0,0,709,711,713,715,717,0,0,0,0,0,0,664,663,664,665,666,667,668,669,671,672,0,0,0,0,0,0,0,0,694,692,691,688,686,683,680,678,677,677,679,682,685,688,691,692,694,694,694,693,692,691,690,688,687,685,684,683,682,681,680,679,679,679,679,679,679,679,679,678,678,678,677,677,678,678,680,682,684,687,690,692,694,696,697,698,698,698,697,697,696,696,695,694,693,692,690,687,685,683,682,682,682,683,684,684,683,683,683,683,683,683,684,685,686,686,687,687,688,688,687,687,687,687,686,686,687,687,687,686,686,685,684,683,683,682,682,682,682,683,684,685,686,688,689,689,690,690,690,690,690,690,689,689,688,688,687,686,685,684,684,683,683
0,0,0,0,0,0,0,0,0,0,0,0,0,0,0,0,0,0,0,0,0,0,0,0,0,0,0,0,0,0,0,0,0,0,0,0,631,633,633,633,632,632,631,631,630,630,629,628,628,627,627,627,627,627,627,628,629,631,632,634,636,639,640,643,649,0,0,545,546,547,547,547,546,546,545,544,543,542,541,541,540,540,539,539,540,540,541,542,544,544,545,545,544,542,540,539,537,536,535,534,533,533,533,534,534,535,536,538,539,540,541,542,543,545,546,547,548,549,549,550,550,550,550,550,550,550,551,551,551,552,552,553,554,555,556,557,558,568,565,583,586,589,591,594,595,596,596,594,592,586,584,583,585,587,590,593,597,600,602,604,606,607,607,607,607,0,0,549,549,549,549,549,549,549,548,548,548,548,548,548,548,548,0,0,0,651,656,657,659,659,660,660,661,661,661,661,661,662,662,662,663,664,664,665,669,0,672,674,675,676,677,677,0,0,0,0,0,0,0,0,0,0,0,0,0,0,0,436,437,437,437,437,437,437,437,435,435,435,435,434,434,433,433,432,432,431,431,431,431,431,431,431,431,431,431,0,0,0,0,0,0,0,0,430,430,428,429,428,0,0,0,0,0,0,664,664,665,666,667,668,670,672,673,676,0,0,0,0,0,0,0,694,692,690,688,685,682,679,677,677,678,680,683,687,689,692,693,694,694,694,693,692,691,689,688,687,685,684,683,681,681,680,680,679,679,679,679,679,679,679,678,678,678,678,678,678,679,680,683,685,688,691,693,695,697,698,698,698,698,697,697,696,696,695,694,693,691,689,687,685,683,682,682,683,683,684,684,683,683,683,683,683,684,684,685,686,687,687,688,688,688,688,687,687,687,687,687,687,687,687,686,685,684,683,682,682,681,681,681,681,682,683,685,686,687,688,689,690,690,690,690,690,690,689,689,688,688,687,686,685,684,684,683,683
0,0,0,0,0,0,0,0,0,0,0,0,0,0,0,0,0,0,0,0,0,0,0,0,0,0,0,0,0,0,0,0,0,0,0,634,633,632,632,631,631,630,629,629,628,628,628,627,627,627,627,627,627,627,628,629,631,632,634,636,638,640,642,644,645,653,0,0,0,544,547,547,547,546,545,545,544,543,542,541,541,540,540,540,540,540,541,542,543,543,544,543,542,541,539,538,537,535,534,534,533,533,533,534,535,536,537,538,539,540,542,543,544,545,546,547,548,549,550,550,550,550,550,549,549,550,550,550,551,551,551,552,552,553,554,555,555,553,553,552,551,551,551,595,596,597,597,596,590,585,582,582,584,587,590,594,597,600,603,605,606,607,607,607,607,0,0,549,549,549,549,549,549,549,548,548,548,548,548,548,549,549,0,0,0,651,656,658,659,660,660,661,661,661,661,661,661,661,662,662,663,664,664,664,667,671,672,674,675,676,677,0,0,0,0,0,0,0,0,0,0,0,0,0,0,0,0,436,437,437,437,437,437,437,437,0,0,0,0,0,0,433,433,432,431,431,431,430,430,430,430,430,431,431,432,0,0,0,0,0,0,0,0,430,430,428,428,428,0,0,0,0,0,0,664,664,665,666,667,668,674,676,677,0,0,0,0,0,0,0,0,694,691,690,687,684,681,679,677,677,679,682,685,688,691,693,694,695,694,694,693,692,690,689,688,686,685,684,682,681,681,680,680,680,680,680,680,679,679,679,679,678,678,678,678,679,680,681,684,686,689,692,694,696,697,698,698,698,698,697,697,696,696,695,694,693,691,689,686,684,683,683,683,683,684,684,684,684,683,683,683,684,684,685,686,687,687,688,688,688,688,688,687,687,687,687,687,687,687,687,686,685,684,683,681,681,680,680,680,680,681,683,684,686,687,688,689,690,690,690,690,690,690,689,689,688,688,687,686,685,684,684,683,683
0,0,0,0,0,0,0,0,0,0,0,0,0,0,0,0,0,0,0,0,0,0,0,0,0,0,0,0,0,0,0,0,0,0,636,634,633,632,631,630,630,629,628,628,627,627,627,626,626,626,627,627,627,628,629,631,633,634,636,639,640,643,644,646,648,651,658,660,0,0,0,547,547,546,546,545,544,544,543,542,541,541,540,540,540,540,540,541,542,542,542,542,540,540,538,537,536,535,534,534,533,533,534,534,535,536,538,539,540,541,543,544,545,546,547,548,549,550,550,550,550,550,549,549,549,549,550,550,550,550,551,551,551,552,552,553,553,552,552,551,551,551,551,551,551,551,552,553,586,584,583,583,584,587,590,594,598,601,603,605,606,607,607,607,607,0,0,549,549,549,549,549,549,549,548,548,548,548,548,549,549,549,0,0,0,651,655,659,660,660,661,661,661,661,661,661,661,661,662,662,663,664,665,666,667,670,672,674,675,676,676,0,0,0,0,0,0,0,0,0,0,0,0,0,0,0,0,437,437,437,437,437,437,437,437,0,0,0,0,0,0,0,0,429,431,430,430,430,430,430,430,430,431,431,0,0,0,0,0,0,0,0,0,430,430,428,428,428,0,0,0,0,0,0,0,665,666,667,669,670,0,679,680,0,0,0,0,0,0,0,0,694,691,689,687,684,681,679,677,678,680,683,686,689,692,694,695,695,695,694,693,692,690,689,688,686,685,683,682,681,681,680,680,680,680,680,680,680,679,679,679,678,678,678,679,679,680,682,685,687,690,693,695,697,698,698,698,698,698,697,697,696,696,695,694,692,690,688,686,684,683,683,683,684,685,685,684,684,684,683,684,684,685,686,686,687,688,688,688,688,688,688,687,687,687,687,687,687,687,686,685,684,683,682,681,680,679,679,679,680,681,682,684,686,687,688,689,690,690,690,690,690,690,690,689,688,688,687,686,685,684,684,683,683
0,0,0,0,0,0,0,0,0,0,0,0,0,0,0,0,0,0,0,0,0,0,0,0,0,0,0,0,0,0,0,0,0,0,635,634,633,632,631,630,629,628,628,627,627,626,626,626,626,626,627,627,628,629,630,632,634,636,638,641,643,645,647,649,651,654,658,661,0,0,0,0,547,546,546,545,545,544,544,543,542,541,540,540,539,539,540,540,541,541,541,540,539,538,537,536,535,535,534,534,534,534,534,535,536,537,538,540,541,542,544,545,546,547,548,549,549,550,550,550,550,550,549,549,549,549,549,550,550,550,550,551,551,551,551,552,552,551,551,551,551,551,551,551,551,551,552,552,553,553,554,553,553,552,552,552,599,601,603,605,606,607,607,607,0,0,0,550,550,549,549,549,549,549,548,548,548,548,549,549,549,549,0,0,0,0,660,660,660,661,661,661,661,661,661,661,661,661,661,662,663,664,665,666,668,670,672,674,675,677,678,679,0,0,0,0,0,0,0,0,0,0,0,0,0,0,0,436,437,437,438,438,438,437,437,437,0,0,0,429,429,428,429,429,430,430,430,430,430,430,0,0,0,0,0,0,0,0,0,0,0,0,0,0,0,0,0,0,0,0,0,0,0,424,425,425,425,425,425,426,687,426,426,426,0,0,0,0,0,0,0,694,691,689,687,683,680,678,677,678,680,684,687,690,693,695,695,696,695,694,693,692,690,689,688,686,685,683,682,681,681,680,680,680,680,680,680,680,680,679,679,679,678,679,679,680,681,683,686,689,692,694,696,698,698,699,699,698,698,697,697,696,696,695,694,692,690,688,686,685,684,684,684,685,685,685,685,684,684,684,684,685,686,686,687,688,688,688,688,688,688,688,687,687,687,687,687,687,687,686,685,684,682,681,680,679,679,679,679,680,681,683,684,686,687,689,690,690,690,691,690,690,690,689,689,688,687,687,686,685,684,683,683,683
0,0,0,0,0,0,0,0,0,0,0,0,0,0,0,0,0,0,0,0,0,0,0,0,0,0,0,0,0,0,0,0,0,0,636,634,633,631,630,629,628,628,627,627,626,626,626,626,626,626,627,627,628,630,631,633,635,638,640,643,645,648,650,653,655,658,661,664,0,0,0,0,0,0,546,546,545,545,544,543,542,542,541,540,539,539,539,539,540,540,540,539,538,537,537,536,535,534,534,534,534,534,535,536,537,538,539,541,542,543,545,546,547,548,549,549,550,550,550,550,550,550,550,549,549,549,549,550,550,550,550,550,551,551,551,551,551,551,551,551,551,551,551,551,551,551,551,552,552,553,553,552,552,552,552,552,551,551,551,551,607,607,608,551,551,551,550,550,550,550,549,549,549,549,548,548,548,549,549,549,549,550,0,0,0,0,661,661,661,661,661,662,661,661,661,661,661,661,661,662,663,664,665,666,668,670,672,674,676,678,680,682,0,0,0,0,0,0,0,0,0,0,0,0,0,0,0,0,438,438,438,438,438,437,437,436,435,433,430,430,430,430,430,430,430,430,430,430,430,430,430,0,0,0,0,0,0,0,0,0,0,0,0,0,0,0,0,0,0,0,0,0,0,424,424,425,425,425,425,426,426,426,426,426,427,428,427,427,427,427,426,0,690,689,686,681,679,677,677,678,681,685,688,691,694,695,696,696,695,694,693,691,690,689,687,686,684,683,682,681,681,681,681,681,681,681,680,680,680,679,679,679,679,679,679,680,682,684,687,690,693,695,697,698,699,699,699,698,698,697,697,696,696,695,694,692,690,688,686,685,685,685,685,686,686,686,685,685,684,684,685,685,686,687,688,688,688,688,688,688,688,688,688,687,687,687,687,687,687,686,684,683,682,680,680,679,679,679,679,680,682,683,685,686,688,689,690,690,691,691,691,690,690,689,689,688,687,687,686,685,684,683,683,683
0,0,0,0,0,0,0,0,0,0,0,0,0,0,0,0,0,0,0,0,0,0,0,0,0,0,0,0,0,0,0,0,0,0,636,634,633,631,630,629,628,628,627,626,626,626,626,626,626,626,627,628,629,630,632,634,637,639,642,645,647,650,653,656,658,661,664,666,0,0,0,0,0,0,547,546,546,545,545,544,543,542,541,540,539,539,539,539,539,539,539,538,537,537,536,535,535,534,534,534,534,535,536,536,538,539,540,542,543,545,546,547,548,549,550,550,551,551,551,550,550,550,550,549,549,549,550,550,550,551,551,551,551,551,551,551,551,551,551,551,550,550,551,551,551,551,551,551,552,552,552,552,552,552,552,551,551,551,551,551,551,551,551,551,551,551,551,550,550,550,549,549,549,549,548,548,549,549,549,550,550,550,0,0,0,663,662,662,662,662,662,662,662,661,661,661,661,661,661,662,663,664,665,666,668,670,672,675,677,679,681,684,687,0,0,0,0,0,0,0,0,0,0,0,0,0,0,0,0,438,438,438,438,437,437,436,433,432,431,430,430,430,430,430,430,430,430,430,430,430,0,0,0,0,0,0,0,0,0,0,0,0,0,0,0,0,0,0,0,0,0,0,0,424,425,425,425,425,426,426,426,426,426,427,427,427,427,427,427,427,427,427,428,690,0,680,678,677,677,679,682,686,689,692,695,696,697,696,695,694,693,691,690,689,687,686,684,683,682,681,681,681,681,681,681,681,681,680,680,679,679,679,679,679,680,681,683,685,688,691,694,696,698,699,699,699,699,698,698,697,697,696,696,695,694,692,690,688,687,686,685,686,686,686,686,686,686,685,685,685,685,686,687,688,688,688,689,689,689,688,688,688,688,688,688,688,688,687,687,686,684,683,681,680,679,679,679,679,680,681,682,684,685,687,688,689,690,691,691,691,691,690,690,689,689,688,687,686,685,685,684,683,683,682
0,0,0,0,0,0,0,0,0,0,0,0,0,0,0,0,0,0,0,0,0,0,0,0,0,0,0,0,0,0,0,0,0,0,0,0,633,632,630,629,628,627,627,626,626,626,626,626,626,627,627,628,630,631,633,635,638,640,643,646,649,652,655,658,661,663,666,667,0,0,0,0,0,0,0,547,546,546,545,544,543,542,541,540,539,539,538,538,538,538,538,537,537,536,535,535,535,534,534,534,535,535,536,537,539,540,542,543,545,546,547,548,549,550,551,551,551,551,551,550,550,550,550,549,549,549,550,550,551,551,551,551,551,551,551,551,551,551,551,551,551,550,550,551,551,551,551,551,551,552,552,551,551,551,551,551,551,551,551,551,551,551,551,551,551,551,551,550,550,550,549,549,549,549,548,549,549,549,549,550,550,551,551,0,663,663,662,662,662,662,662,662,662,661,661,661,661,661,661,662,663,664,665,667,668,671,673,676,679,681,683,686,689,690,0,0,0,0,0,0,0,0,0,0,0,0,0,0,0,0,0,0,437,436,435,434,433,433,431,430,430,430,430,430,430,430,430,430,430,430,0,0,0,0,0,0,0,0,0,0,0,0,0,0,0,0,0,0,0,0,0,0,0,0,425,425,425,425,426,426,426,426,426,427,427,428,427,427,427,427,427,427,427,427,427,427,677,677,675,677,680,687,690,693,696,697,697,696,695,694,693,691,690,689,687,685,684,683,682,681,681,681,681,681,681,681,681,680,680,680,679,679,679,679,680,682,684,687,689,692,695,697,698,699,699,699,699,699,698,698,697,697,696,695,694,692,690,688,687,686,686,686,687,687,687,686,686,685,685,685,686,687,687,688,689,689,689,689,689,689,688,688,688,688,688,688,688,687,687,685,684,682,681,680,679,679,679,679,680,682,683,685,686,688,689,690,690,691,691,691,691,690,690,689,689,688,687,686,685,684,683,683,682,682
0,0,0,0,0,0,0,0,0,0,0,0,0,0,0,0,0,0,0,0,0,0,0,0,0,0,0,0,0,0,0,0,0,638,638,636,633,632,630,629,628,628,627,627,626,626,626,626,627,627,628,629,630,632,634,636,639,641,644,647,650,654,657,660,663,666,668,669,0,0,0,0,0,0,0,548,547,546,545,544,543,542,541,540,539,539,538,538,538,538,537,537,536,536,535,535,535,534,535,535,535,536,537,538,540,541,543,545,546,547,549,550,550,551,551,552,552,0,0,0,0,0,609,0,550,551,552,553,552,552,552,551,551,551,551,551,551,551,551,551,551,551,551,551,551,551,551,551,551,551,551,551,551,551,551,551,551,551,551,551,551,551,551,551,551,551,551,550,550,550,549,549,549,549,549,549,549,549,550,550,550,551,551,0,662,663,663,663,663,663,662,662,662,661,661,660,660,661,661,662,663,664,665,667,669,671,674,677,680,683,686,688,690,692,695,695,696,695,0,0,0,0,0,0,0,0,0,0,0,0,0,0,0,0,0,0,0,0,0,0,0,431,431,430,430,0,430,0,0,0,0,0,0,0,0,0,0,0,0,0,0,0,0,0,0,0,0,0,0,0,0,0,0,0,428,426,425,426,426,426,426,426,426,427,427,427,427,427,427,427,427,427,427,427,427,427,427,427,427,428,427,690,692,695,696,697,697,697,695,694,693,691,690,688,687,685,684,682,681,681,681,681,681,681,681,681,681,680,680,680,679,679,679,680,681,683,685,688,691,693,696,698,699,699,700,700,699,699,698,698,697,697,696,695,693,692,690,688,687,687,687,687,687,687,687,687,686,686,686,686,686,687,688,689,689,689,689,689,689,689,688,688,688,688,688,688,688,688,687,685,684,682,681,680,679,679,679,680,681,682,684,686,687,689,690,690,691,691,691,691,691,690,690,689,688,688,687,686,685,684,683,682,682,682
0,0,0,0,0,0,0,0,0,0,0,0,0,0,0,0,0,0,0,0,0,0,0,0,0,0,0,0,0,0,0,0,0,639,638,636,634,632,631,629,628,628,627,627,627,627,627,627,627,628,628,629,631,632,634,637,639,642,645,648,652,655,658,661,665,667,670,674,677,679,0,0,0,0,0,0,546,546,544,545,543,542,541,540,539,538,538,538,538,537,537,537,536,536,535,535,535,535,535,535,536,537,538,539,541,543,544,546,548,549,550,551,551,552,552,552,552,0,0,0,608,608,609,608,606,602,0,554,555,552,556,554,552,552,552,552,552,552,551,551,551,551,551,551,551,551,551,551,551,551,551,551,551,551,551,551,551,551,551,551,551,551,551,551,551,551,550,550,550,550,549,549,549,549,549,549,549,549,550,550,550,551,551,550,550,663,663,663,663,663,662,662,662,661,661,660,660,660,661,662,663,664,666,667,669,672,675,678,682,685,688,690,692,694,695,696,696,696,0,665,0,0,0,0,0,0,0,0,0,0,0,0,0,0,0,0,0,0,0,0,0,0,0,0,0,0,0,0,0,0,443,0,0,0,0,0,0,0,0,0,0,0,0,0,0,0,0,0,0,0,0,0,0,0,427,426,426,425,426,426,426,426,426,427,426,427,427,428,428,427,427,427,427,427,427,427,427,427,427,427,427,426,426,426,426,698,698,697,695,694,692,691,690,688,687,685,683,682,681,681,680,681,681,681,681,681,681,680,680,680,679,679,679,680,681,683,686,689,692,694,697,698,699,700,700,700,699,699,698,698,697,697,696,695,693,692,690,689,688,687,687,687,687,687,687,687,686,686,686,686,687,688,688,689,689,689,689,689,689,689,689,688,688,688,689,689,688,688,687,685,684,682,681,680,679,679,680,680,682,683,685,687,688,689,690,691,691,691,691,691,691,690,690,689,688,688,687,686,685,684,683,682,681,681
0,0,0,0,0,0,0,0,0,0,0,0,0,0,0,0,0,0,0,0,0,0,0,0,0,0,0,0,0,0,0,0,0,0,638,636,634,632,631,630,629,628,627,627,627,627,627,627,627,628,629,630,631,633,635,637,640,643,646,649,652,656,659,663,666,669,672,675,678,680,683,683,0,0,0,0,0,0,0,0,541,541,540,539,539,538,538,538,537,537,535,536,536,536,535,535,535,535,535,536,537,538,539,540,542,544,546,548,549,550,551,552,552,553,553,553,553,553,0,0,609,611,611,611,615,604,580,584,0,562,560,560,552,552,553,552,553,552,551,551,551,551,551,551,551,551,551,551,551,551,551,551,551,551,551,551,551,551,551,551,551,551,551,551,551,551,550,550,550,550,549,549,549,549,549,549,549,549,550,550,550,551,551,551,551,550,550,663,663,663,663,662,661,661,660,660,660,660,661,662,663,664,666,668,670,673,676,680,684,687,690,692,694,695,696,696,696,697,697,664,662,661,660,659,0,0,0,0,0,0,0,0,0,0,0,0,0,0,0,0,0,0,0,0,0,0,0,0,443,444,444,0,0,0,0,0,0,0,0,0,0,0,0,0,0,0,0,0,0,0,0,0,0,0,427,427,426,426,426,426,426,426,426,427,427,427,428,428,427,427,427,427,427,427,427,427,427,427,427,427,427,427,426,426,426,426,426,426,426,426,692,691,690,688,686,684,683,682,681,680,680,680,681,681,681,681,680,680,680,680,679,679,680,680,682,684,687,690,693,695,697,699,700,700,700,700,699,699,698,698,697,697,696,695,693,692,690,689,688,687,687,687,688,687,687,687,686,686,686,687,688,688,689,689,690,690,690,689,689,689,689,689,689,689,689,689,689,688,687,685,684,682,681,680,679,679,680,681,683,684,686,688,689,690,691,691,691,691,691,691,691,690,690,689,688,687,686,685,684,683,682,681,681,681
0,0,0,0,0,0,0,0,0,0,0,0,0,0,0,0,0,0,0,0,0,0,0,0,0,0,0,0,0,0,0,0,0,639,638,637,635,633,631,630,629,628,628,627,627,627,627,627,628,628,629,630,631,633,635,638,640,643,647,650,653,657,660,663,667,670,673,676,679,681,683,684,684,0,0,0,0,0,0,0,541,539,540,539,539,538,538,538,537,537,537,536,536,536,535,535,535,535,536,537,537,538,540,541,544,546,548,549,551,552,553,553,553,553,553,553,553,553,0,0,610,612,613,613,614,611,619,623,624,625,625,625,625,625,0,0,0,551,555,551,551,551,551,551,551,551,551,551,551,551,551,551,551,551,551,551,551,551,551,551,551,551,551,551,551,551,550,550,550,549,549,549,549,549,549,549,549,549,550,550,551,551,551,551,550,550,550,550,549,663,663,662,662,661,660,660,660,660,661,662,663,665,666,668,671,674,677,681,686,689,691,693,695,696,697,697,697,696,698,664,660,660,659,659,0,0,0,0,0,0,0,0,0,0,0,0,0,0,0,0,0,0,0,0,0,0,0,0,0,444,444,444,444,443,443,443,442,0,0,0,0,0,0,0,0,0,0,0,0,0,0,0,0,429,428,427,427,426,426,426,426,426,426,427,427,427,427,427,427,427,427,427,427,427,427,427,427,427,427,427,427,427,427,426,426,426,426,426,426,426,426,426,426,426,425,684,682,682,681,680,680,680,680,681,681,681,680,680,680,679,679,679,680,681,682,685,688,691,694,696,698,699,700,700,700,700,699,699,698,698,697,697,696,694,693,691,690,689,688,688,688,688,688,687,687,687,686,686,687,687,688,689,689,690,690,690,690,690,689,689,689,689,689,689,689,689,689,688,687,685,683,682,681,680,680,680,681,682,684,685,687,689,690,691,691,691,692,692,691,691,691,690,690,689,688,687,686,685,684,683,682,681,681,680
0,0,0,0,0,0,0,0,0,0,0,0,0,0,0,0,0,0,0,0,0,0,0,0,0,0,0,0,0,0,0,0,0,639,639,637,635,633,631,630,629,628,628,628,627,627,628,628,628,629,629,630,632,634,636,638,641,644,647,651,654,657,661,664,668,671,674,677,680,682,684,685,686,0,0,0,0,0,0,0,0,539,538,539,539,538,538,538,538,537,537,537,536,536,536,536,536,536,536,537,538,539,541,543,545,547,549,551,552,553,554,554,554,554,554,554,553,553,0,0,610,613,615,617,612,613,616,618,625,626,626,626,627,626,625,622,622,623,0,0,0,0,0,0,0,0,551,551,551,551,551,551,551,551,551,551,551,551,551,551,551,551,551,551,551,551,550,550,550,549,549,549,549,549,549,549,549,549,550,550,551,551,551,550,550,550,550,550,549,549,549,549,549,549,548,548,661,660,661,662,664,665,667,669,671,674,678,682,688,691,693,695,696,697,697,697,696,696,699,663,662,661,660,659,659,0,0,0,0,0,0,0,0,0,0,0,0,0,0,0,0,0,0,0,0,0,0,0,444,444,444,444,444,443,443,443,443,443,444,0,0,0,0,0,0,0,0,0,0,0,0,0,0,0,428,428,427,426,427,426,426,427,427,427,427,427,427,427,427,427,427,427,427,427,427,427,427,427,427,427,427,427,427,427,427,427,427,427,427,427,426,426,426,426,425,425,425,424,424,680,680,680,680,680,681,680,680,680,680,679,679,679,680,681,683,686,689,692,694,697,698,699,700,700,700,700,699,699,698,698,697,697,695,694,692,691,690,689,688,688,688,688,688,687,687,687,687,687,687,688,689,689,690,690,690,690,690,690,689,689,689,689,689,689,689,689,689,688,687,685,683,682,681,680,680,680,681,683,684,686,688,689,690,691,692,692,692,692,692,691,691,691,690,689,688,687,686,685,684,682,681,681,680,680
0,0,0,0,0,0,0,0,0,0,0,0,0,0,0,0,0,0,0,0,0,0,0,0,0,0,0,0,0,0,0,0,0,640,640,638,635,633,632,630,629,629,628,628,628,628,628,628,628,629,630,631,632,634,636,639,641,645,648,651,655,658,662,665,668,671,675,678,680,682,684,685,686,687,687,0,0,0,0,0,0,0,0,538,539,539,538,538,538,538,538,537,537,536,536,536,536,537,537,538,539,540,542,544,546,549,551,552,554,554,555,555,555,555,554,554,554,553,0,0,0,609,616,619,614,615,617,625,626,626,626,627,627,627,626,626,625,625,626,624,624,0,0,619,619,619,619,620,621,621,0,552,551,551,551,551,551,551,551,551,551,551,551,551,551,551,550,550,550,550,549,549,549,549,549,549,549,550,550,550,551,551,551,550,550,550,550,550,549,549,549,549,549,549,548,548,549,549,549,549,666,666,667,669,671,674,679,683,690,693,695,696,697,697,697,697,696,695,670,667,664,661,661,660,0,0,0,714,714,0,0,0,0,0,0,0,0,0,0,0,0,0,0,0,0,0,0,0,444,444,444,444,444,443,443,443,443,443,444,0,0,0,0,0,0,0,0,0,0,0,0,0,0,0,0,432,436,439,428,428,0,426,427,427,427,427,427,427,428,428,428,428,428,427,427,427,427,427,427,427,427,427,427,427,427,427,427,427,427,427,427,427,426,426,426,425,425,425,425,424,424,424,424,424,425,425,681,680,680,679,679,679,680,681,684,686,690,693,695,697,699,700,700,700,700,700,699,699,698,698,697,696,695,694,692,690,689,688,688,688,688,688,688,687,687,687,687,687,688,688,689,690,690,690,690,690,690,690,689,689,689,689,689,689,689,689,689,688,687,685,683,681,680,680,680,681,682,683,685,687,689,690,691,692,692,692,692,692,692,692,691,691,690,689,688,687,686,685,683,682,681,680,680,680
0,0,0,0,0,0,0,0,0,0,0,0,0,0,0,0,0,0,0,0,0,0,0,0,0,0,0,0,0,0,0,0,0,642,641,639,636,634,632,631,630,629,628,628,628,628,628,628,629,629,630,631,632,634,637,639,642,645,649,652,656,659,662,666,669,672,675,678,681,683,685,686,687,687,687,687,0,0,0,0,0,0,0,538,539,539,539,539,539,538,538,538,537,537,537,537,537,537,538,539,540,541,543,545,547,550,552,554,555,555,556,556,556,555,555,554,554,553,0,0,0,0,611,614,616,617,625,626,626,626,626,627,627,628,627,628,628,628,629,626,626,623,623,621,624,623,621,620,620,620,619,616,610,598,596,594,592,591,590,551,551,551,551,551,551,551,550,550,550,550,549,549,549,549,549,549,549,550,550,550,551,551,551,550,550,550,550,550,549,549,549,549,549,549,548,548,549,549,549,549,549,549,549,549,549,549,549,548,692,694,696,697,698,698,697,696,695,691,674,669,665,663,662,661,0,713,714,714,714,0,0,0,0,0,0,0,0,0,0,0,0,0,0,0,0,0,0,0,444,444,444,444,444,444,444,444,444,444,444,444,0,0,0,0,0,0,0,0,0,0,0,0,465,466,465,465,443,440,460,460,460,0,0,426,428,427,427,428,428,428,428,428,428,428,428,428,428,428,428,427,427,427,427,427,427,427,427,427,428,428,427,427,427,427,426,426,426,425,425,425,425,425,425,425,426,426,426,426,680,680,679,679,680,681,684,687,690,693,696,698,699,700,700,700,700,700,699,699,698,698,697,696,695,693,691,690,689,688,688,688,688,688,688,687,687,687,687,688,688,689,689,690,690,690,690,690,690,690,689,689,689,689,689,690,690,689,689,688,686,685,683,681,680,680,680,681,682,684,686,688,690,691,692,692,692,692,692,692,692,692,691,691,690,689,688,687,686,685,683,682,681,680,680,679
0,0,0,0,0,0,0,0,0,0,0,0,0,0,0,0,0,0,0,0,0,0,0,0,0,0,0,0,0,0,0,0,0,648,643,640,637,635,633,631,630,629,629,628,628,628,628,628,629,629,630,631,633,635,637,640,643,646,649,653,656,660,663,666,670,673,676,679,681,683,685,686,687,687,688,687,0,0,0,0,0,0,0,539,539,540,540,540,539,539,539,538,538,538,538,538,538,538,539,540,541,542,543,546,548,551,553,554,555,556,556,556,556,555,555,554,554,0,0,0,0,0,0,611,624,625,626,626,626,626,627,627,628,628,629,630,632,632,632,635,636,642,642,632,625,624,622,621,621,621,620,617,620,614,595,593,590,589,589,589,0,0,551,552,551,551,550,550,550,550,549,549,549,549,549,549,550,550,550,550,551,551,551,550,550,550,550,550,549,549,549,549,549,549,549,548,549,549,549,549,549,549,549,549,549,549,549,549,696,696,697,698,698,698,697,696,695,699,672,668,665,664,663,0,0,713,714,714,714,0,0,0,0,0,0,0,0,0,0,0,0,0,0,0,0,0,0,0,445,444,444,444,444,444,444,444,444,445,445,446,0,0,0,0,0,0,0,0,0,0,0,0,465,465,465,464,464,463,461,460,460,461,462,0,0,0,0,429,429,429,429,429,428,428,428,428,428,428,428,428,428,428,428,428,428,428,428,428,428,428,428,428,428,428,427,427,427,426,426,426,426,426,426,426,427,426,427,427,427,427,428,428,681,683,685,687,691,694,697,698,699,700,700,700,700,700,699,699,698,698,697,696,694,692,691,689,688,688,688,688,689,688,688,688,687,687,687,688,689,689,690,690,690,691,690,690,690,690,689,689,689,689,689,690,690,690,689,688,686,684,682,681,680,680,680,681,683,685,687,689,690,692,692,693,693,693,693,692,692,692,691,691,690,689,688,687,686,685,683,682,681,680,679,679
0,0,0,0,0,0,0,0,0,0,0,0,0,0,0,0,0,0,0,0,0,0,0,0,0,0,0,0,0,0,0,0,0,652,646,641,637,635,633,632,630,630,629,629,628,628,628,629,629,630,630,632,633,635,637,640,643,647,650,654,657,661,664,667,670,673,676,679,682,684,685,687,687,688,688,688,0,0,0,0,0,0,0,540,540,541,541,541,540,540,540,539,539,538,538,538,539,539,540,540,541,543,544,546,548,551,553,554,555,555,0,0,555,554,0,0,0,0,0,0,0,0,0,0,618,625,626,626,626,626,627,627,628,629,631,629,629,629,630,641,642,643,643,644,619,618,623,623,623,624,623,619,621,615,595,591,590,588,587,586,589,0,552,552,552,551,0,550,550,550,550,549,549,549,549,549,550,550,550,551,551,551,551,550,550,550,550,549,549,549,549,549,549,549,549,549,549,549,549,549,549,549,549,549,549,549,549,549,549,549,549,700,699,698,698,696,694,691,672,668,666,664,664,0,709,710,714,714,714,0,0,0,0,0,0,0,0,0,0,0,0,0,0,0,0,0,0,446,445,445,445,445,445,445,445,445,445,446,446,447,447,0,0,0,0,0,0,0,0,0,0,0,0,465,465,464,464,463,462,461,461,462,463,463,0,0,0,0,429,430,430,429,429,429,429,429,429,428,428,428,428,428,428,428,429,429,429,429,429,429,429,429,429,428,428,428,427,427,427,427,427,427,427,427,427,427,427,427,428,428,428,428,428,428,428,427,695,697,699,700,700,701,700,700,700,699,699,699,698,698,697,695,694,692,690,689,688,688,689,689,689,689,688,688,687,688,688,688,689,690,690,691,691,691,691,690,690,690,690,689,689,689,690,690,690,690,689,688,686,684,682,681,680,680,681,682,684,686,688,690,691,692,693,693,693,693,693,693,692,692,692,691,690,689,689,687,686,685,683,682,681,680,679,679
0,0,0,0,0,0,0,0,0,0,0,0,0,0,0,0,0,0,0,0,0,0,0,0,0,0,0,0,0,0,0,0,661,655,651,642,637,635,633,632,631,630,629,629,629,629,629,629,629,630,631,632,634,636,638,641,644,647,651,654,658,661,665,668,671,674,677,680,682,684,686,687,688,688,688,688,688,0,0,0,0,0,0,541,542,542,542,542,541,541,541,540,540,539,539,539,539,540,541,541,542,543,545,546,548,551,553,554,554,0,0,0,0,0,0,910,912,915,917,918,919,0,0,0,0,0,626,626,626,626,627,627,628,630,630,634,630,644,640,643,644,644,638,636,638,634,632,619,626,627,627,630,631,0,595,592,589,588,586,585,585,0,552,553,552,551,0,0,550,550,550,550,550,549,549,550,550,550,551,551,551,551,551,550,550,550,550,549,549,549,549,549,549,549,549,549,549,549,549,549,549,549,549,549,549,549,549,549,549,549,549,548,548,548,548,548,548,548,670,669,667,665,664,669,0,709,711,712,0,0,0,0,0,0,0,0,0,0,0,0,0,0,0,0,0,0,0,446,446,446,445,445,445,445,446,446,446,446,447,447,448,0,0,0,0,0,0,0,0,0,0,0,0,465,464,464,464,463,463,463,462,463,463,464,464,464,464,0,429,431,430,430,429,429,429,429,429,429,429,429,429,429,429,429,429,429,429,430,430,430,430,429,429,429,429,429,428,428,428,428,428,428,428,428,428,428,428,428,428,428,428,428,428,428,428,428,428,428,428,429,429,429,429,700,700,699,699,699,698,698,697,695,693,691,690,689,688,688,689,689,689,689,688,688,688,688,688,689,690,690,691,691,691,691,691,690,690,690,690,689,690,690,690,690,690,690,689,688,686,684,682,681,680,680,681,682,684,687,689,691,692,693,693,693,693,693,693,693,693,692,692,691,690,689,689,687,686,685,683,682,681,680,679,679
0,0,0,0,0,0,0,0,0,0,0,0,0,0,0,0,0,0,0,0,0,0,0,0,0,0,0,0,0,0,0,0,663,658,660,634,636,634,633,632,631,630,630,629,629,629,629,629,629,630,631,632,634,636,638,641,644,648,651,655,659,662,665,668,671,674,677,680,682,685,686,687,688,688,689,689,689,0,0,0,0,0,0,542,543,543,543,543,542,542,542,541,541,540,540,540,541,541,542,542,543,544,545,546,548,550,552,553,0,0,0,0,0,901,905,908,912,915,917,919,920,921,922,0,0,0,0,0,0,0,0,0,0,0,0,631,639,646,647,644,645,638,640,0,637,636,633,634,631,626,634,635,632,640,0,0,591,587,584,583,580,580,553,554,553,551,0,0,550,550,550,550,550,550,550,550,550,550,551,551,551,551,551,550,550,550,550,549,549,549,548,548,548,549,549,549,549,549,549,549,549,549,549,549,549,549,549,549,549,549,549,548,548,548,548,548,548,548,549,549,549,549,548,548,0,0,0,0,0,0,0,0,0,0,0,0,0,0,0,0,0,0,0,0,0,0,450,447,447,447,446,446,446,446,446,447,447,447,447,448,448,0,0,0,0,0,0,0,0,0,0,0,0,465,464,464,464,464,463,463,463,464,464,465,465,465,465,463,466,0,0,0,0,0,429,430,429,428,429,429,429,429,429,429,430,430,430,430,430,430,430,430,430,430,430,429,429,429,429,429,428,428,428,428,428,428,428,428,428,428,429,429,429,429,429,429,428,429,429,429,429,429,430,430,430,430,430,431,698,698,697,694,692,690,689,688,688,689,689,690,690,689,689,688,688,688,689,689,690,691,691,691,691,691,691,691,690,690,690,690,690,690,690,690,690,690,689,687,686,684,682,681,680,680,681,683,685,687,690,691,693,693,694,694,694,694,693,693,693,692,692,691,690,689,689,687,686,685,683,682,680,679,679,679
0,0,0,0,0,0,0,0,0,0,0,0,0,0,0,0,0,0,0,0,0,0,0,0,0,0,0,0,0,0,0,0,0,664,662,639,636,634,633,632,631,631,630,630,629,629,629,629,630,630,631,633,634,636,639,642,645,648,652,656,659,663,666,669,672,675,678,680,683,685,687,688,688,689,689,689,689,0,0,0,0,0,0,543,544,544,544,544,543,543,543,542,542,541,541,541,542,542,543,544,544,545,546,546,0,868,864,867,869,873,878,883,887,892,896,908,911,914,917,919,920,922,924,923,925,0,0,0,0,0,0,0,0,0,0,0,0,0,0,0,0,0,0,0,0,0,0,636,636,636,636,635,0,0,0,0,0,585,583,580,576,565,559,558,554,551,0,0,550,550,550,550,550,550,550,550,550,551,551,551,551,551,551,551,550,550,549,549,549,548,548,548,548,549,549,549,549,549,549,549,549,549,549,549,549,549,549,549,549,549,549,548,548,548,548,548,548,548,549,549,549,549,549,549,549,548,548,548,548,548,0,0,0,0,0,0,0,0,0,0,0,0,0,0,0,0,450,448,448,448,447,447,447,447,447,447,448,448,448,448,448,0,0,0,0,0,0,0,0,0,0,0,0,0,0,0,0,0,0,0,465,465,465,465,465,466,466,467,467,467,467,467,0,0,0,0,0,0,0,431,431,431,431,430,430,431,431,431,431,431,431,431,431,430,430,430,430,430,429,429,429,429,429,429,429,429,429,429,429,429,429,429,429,429,429,429,429,429,429,429,429,430,430,430,430,430,431,431,430,430,431,431,431,431,432,433,687,689,690,690,690,689,689,688,688,689,689,690,690,691,691,691,691,691,691,691,690,690,690,690,690,690,690,690,690,690,689,687,686,684,682,681,680,681,682,683,685,688,691,692,693,694,694,694,694,694,694,693,693,692,692,691,690,689,688,687,686,684,683,681,680,679,679,678
0,0,0,0,0,0,0,0,0,0,0,0,0,0,0,0,0,0,0,0,0,0,0,0,0,0,0,0,0,0,0,0,0,665,664,636,634,634,633,632,632,631,630,630,630,629,629,629,630,630,631,633,635,637,639,642,646,649,653,656,660,663,666,669,672,675,678,681,683,685,687,688,689,689,689,689,689,0,0,0,0,0,0,544,546,545,545,545,545,544,544,543,543,542,542,542,543,543,544,545,545,546,546,0,858,860,862,865,869,873,878,884,889,894,899,906,911,914,917,919,921,923,926,929,931,933,932,0,0,0,0,0,0,930,929,929,931,932,0,0,0,0,0,0,0,0,0,0,0,0,0,0,0,0,0,0,0,0,0,575,575,565,560,559,554,0,0,551,551,551,550,550,550,550,550,550,550,551,551,552,552,552,551,551,551,550,550,549,548,548,548,548,548,548,549,549,549,549,549,549,549,549,549,549,549,549,549,549,549,549,549,549,548,548,548,548,548,548,549,549,549,549,549,549,549,549,549,549,549,550,550,550,0,0,0,0,0,0,0,0,0,0,462,460,458,455,451,450,449,449,448,448,448,448,448,448,448,448,448,448,448,775,775,775,775,0,0,0,0,664,664,664,664,0,0,0,0,0,0,0,0,0,467,467,467,467,468,468,467,467,467,467,467,0,0,0,0,0,0,0,0,0,0,0,431,431,431,431,432,431,431,431,431,431,431,431,431,430,430,430,430,430,430,429,429,429,429,429,430,430,430,430,430,430,430,430,430,429,430,430,430,430,430,430,430,431,431,431,431,431,431,431,431,432,432,433,435,691,692,692,690,690,689,689,688,689,689,690,691,691,691,692,691,691,691,691,690,690,690,690,690,690,691,691,690,690,689,687,686,684,682,681,681,681,682,684,686,690,692,693,694,695,695,695,694,694,694,693,693,692,692,691,690,689,688,687,686,684,682,681,680,679,678,678
0,0,0,0,0,0,0,0,0,0,0,0,0,0,0,0,0,0,0,0,0,0,0,0,0,0,0,0,0,0,0,0,0,0,0,633,635,634,633,633,632,631,631,630,630,630,629,630,630,631,632,633,635,637,640,643,646,650,654,657,661,664,667,670,673,676,679,681,684,686,687,688,689,689,690,690,690,0,0,0,0,0,0,0,546,546,546,546,546,545,545,544,544,544,543,544,544,545,545,546,546,547,547,0,856,858,862,865,869,874,880,885,890,896,901,907,912,915,918,920,922,924,926,929,931,932,932,931,928,928,927,928,927,928,928,929,929,930,930,0,0,0,0,0,0,0,0,0,0,0,0,0,0,0,0,0,0,0,573,573,572,564,565,564,554,0,0,551,551,551,551,550,550,550,550,550,551,551,551,552,552,551,553,574,597,596,595,593,592,591,590,591,549,549,549,549,549,549,549,549,549,549,549,549,549,549,549,549,549,549,549,549,549,548,548,548,548,549,549,549,549,549,549,549,549,549,549,549,550,550,550,550,550,0,0,0,0,0,0,0,0,464,462,460,458,455,452,452,450,450,449,449,449,449,449,449,449,449,449,449,448,776,776,776,776,774,0,0,0,663,663,663,663,0,0,0,0,0,0,0,0,0,0,0,467,0,468,468,467,467,467,467,467,0,0,0,0,0,0,0,0,0,0,0,0,0,432,432,432,432,432,432,432,432,431,432,431,431,431,431,431,430,430,430,430,430,430,430,430,430,431,431,430,430,430,430,430,430,430,430,430,430,430,431,431,431,431,431,431,431,431,431,431,432,432,433,434,435,435,436,436,438,690,690,689,690,689,690,691,691,692,692,692,691,691,691,690,690,690,690,690,691,691,691,691,690,689,687,685,684,682,681,681,682,683,685,688,691,693,694,695,695,695,695,695,694,694,693,693,692,692,691,690,689,688,687,685,684,682,681,680,679,678,678
0,0,0,0,0,0,0,0,0,0,0,0,0,0,0,0,0,0,0,0,0,0,0,0,0,0,0,0,0,0,0,0,0,0,634,636,635,634,634,633,632,632,631,630,630,630,630,630,630,631,632,633,635,638,640,643,647,650,654,658,661,665,668,671,674,676,679,682,684,686,688,689,689,690,690,690,690,0,0,0,0,0,0,0,547,547,547,547,547,546,546,545,545,545,545,545,545,546,546,547,548,548,548,849,854,857,860,865,870,875,881,887,892,898,903,908,913,916,919,921,922,924,926,928,930,930,931,930,928,928,927,927,927,928,928,928,929,929,929,926,0,0,0,0,0,0,0,0,0,0,0,0,0,0,0,0,0,0,0,572,571,568,563,562,556,0,0,551,551,551,551,551,550,550,550,550,551,551,551,551,602,600,600,599,598,596,595,593,592,591,590,591,591,589,593,594,549,549,549,549,549,549,549,549,549,549,549,549,549,549,549,549,549,549,548,548,548,549,549,549,549,550,550,550,550,549,550,550,550,550,550,550,551,551,0,0,0,0,0,0,479,479,478,0,458,455,454,452,451,451,450,450,449,449,449,449,449,449,449,448,775,776,776,776,776,776,0,0,663,663,663,663,664,664,0,0,0,0,0,0,0,0,0,0,0,0,0,0,0,468,467,468,0,0,0,0,0,0,0,0,0,0,0,0,0,0,0,0,434,434,434,433,432,432,432,432,432,432,432,432,432,431,431,431,431,431,431,431,432,432,432,431,431,431,431,431,431,431,430,430,430,431,431,431,431,431,431,431,431,431,431,431,431,432,432,433,434,435,435,436,436,437,437,438,438,438,441,691,691,692,691,692,692,691,691,691,690,690,690,690,690,691,691,691,690,690,688,687,685,684,682,682,682,683,684,687,690,692,694,695,695,696,695,695,695,694,694,693,693,692,692,691,690,689,688,687,685,683,682,680,679,678,678,678
0,0,0,0,0,0,0,0,0,0,0,0,0,0,0,0,0,0,0,0,0,0,0,0,0,0,0,0,0,0,0,0,0,0,637,636,635,634,634,633,632,632,631,631,630,630,630,630,631,631,632,634,636,638,641,644,647,651,655,659,662,665,668,671,674,677,680,682,685,687,688,689,690,690,690,690,690,0,0,0,0,0,0,0,548,548,548,548,548,547,547,546,546,546,546,546,546,547,548,548,549,549,549,849,854,857,860,865,870,876,882,888,894,900,905,910,914,917,919,921,923,924,926,927,928,929,929,929,928,927,927,927,927,927,928,928,928,929,928,925,0,0,0,0,0,0,0,0,0,0,0,0,0,0,0,0,0,0,0,0,0,0,560,556,555,552,0,551,551,551,551,551,551,550,550,551,551,551,551,0,601,601,600,599,598,596,595,594,592,591,590,591,591,589,591,592,593,599,601,0,0,549,549,549,549,549,549,549,549,549,549,549,549,549,549,548,549,549,549,549,550,550,550,550,550,550,550,550,550,550,550,551,551,0,0,0,0,0,481,481,480,480,479,0,459,456,454,453,452,452,451,450,450,450,450,450,449,449,449,775,776,776,777,777,777,0,0,0,663,663,663,663,663,664,664,0,0,0,0,0,0,0,0,661,658,657,656,656,656,0,669,671,0,674,0,0,0,0,0,0,0,0,0,0,0,0,0,0,0,0,0,0,448,434,0,433,433,433,432,432,432,432,432,432,432,432,436,433,433,433,433,433,432,432,432,432,432,431,431,431,431,431,431,431,431,431,431,431,431,431,431,431,432,432,432,433,434,435,435,436,437,437,437,438,438,438,435,439,441,442,441,692,692,692,692,691,690,690,690,690,691,691,691,691,690,689,688,687,685,683,682,682,682,683,686,688,691,693,695,696,696,696,696,695,695,695,694,693,693,692,692,691,690,689,688,686,685,683,681,680,679,678,678,677
0,0,0,0,0,0,0,0,0,0,0,0,0,0,0,0,0,0,0,0,0,0,0,0,0,0,0,0,0,0,0,0,0,665,0,635,635,635,634,633,633,632,632,631,631,630,630,630,631,632,633,634,636,639,641,645,648,652,656,659,663,666,669,672,675,678,680,683,685,687,688,689,690,690,690,691,691,0,0,0,0,0,0,0,549,549,549,549,549,548,548,547,547,547,547,547,548,548,549,549,550,550,550,849,854,856,860,865,871,877,883,890,896,902,907,911,915,918,920,922,923,924,925,926,927,928,928,928,927,927,927,927,927,927,927,928,928,928,928,927,926,922,0,0,0,0,0,0,0,0,0,0,0,0,0,0,0,0,0,0,0,0,555,555,555,0,0,551,551,551,551,551,551,551,551,551,551,551,551,601,602,602,601,600,599,598,597,596,594,593,593,593,592,590,592,593,594,597,601,602,604,0,0,0,0,549,549,549,549,549,549,549,549,549,549,549,549,549,549,550,550,550,550,550,550,550,550,550,551,551,551,551,551,0,0,0,0,0,483,482,481,480,480,0,460,456,455,454,453,453,452,451,451,451,450,450,450,450,449,775,776,776,777,777,777,0,0,0,663,663,663,663,663,663,663,0,0,0,0,0,0,0,663,661,658,656,656,656,656,661,669,673,675,675,0,0,0,0,0,0,0,0,0,0,0,0,0,0,0,0,0,0,0,0,446,0,0,0,433,433,434,433,433,433,432,433,436,434,434,434,434,434,433,433,433,432,432,432,432,431,431,431,431,431,431,431,431,431,431,431,431,432,432,432,432,433,434,434,436,436,436,436,437,437,437,439,439,441,440,440,440,442,442,442,442,442,442,691,691,690,691,691,691,691,690,689,688,686,685,683,682,682,683,684,687,690,693,694,696,696,697,696,696,696,695,695,694,693,693,692,691,691,690,689,688,686,684,683,681,680,679,678,677,677
0,0,0,0,0,0,0,0,0,0,0,0,0,0,0,0,0,0,0,0,0,0,0,0,0,0,0,0,0,0,0,0,665,663,634,636,636,635,634,634,633,632,632,631,631,631,631,631,631,632,633,635,637,639,642,645,649,653,656,660,663,667,670,672,675,678,681,684,686,687,689,690,690,690,691,691,691,691,0,0,0,0,0,0,550,550,550,550,550,549,549,548,548,548,548,549,549,549,550,550,551,551,551,0,854,857,860,865,872,879,885,892,898,904,908,913,916,919,921,922,923,924,925,926,926,927,927,927,927,927,927,927,927,927,927,927,927,927,927,927,926,926,924,922,0,0,0,0,0,0,0,0,0,0,0,0,0,0,0,0,0,551,555,554,554,553,0,551,551,551,551,551,551,551,551,551,551,551,0,603,603,603,602,600,599,598,597,596,0,0,0,0,0,595,592,593,595,597,602,603,605,608,0,0,0,0,0,0,596,550,550,550,549,549,549,549,549,549,549,550,550,550,550,550,551,551,551,551,551,551,551,551,550,0,0,0,0,0,485,484,483,482,480,479,462,456,456,455,454,453,453,452,452,451,451,451,451,450,449,0,776,776,777,777,777,0,0,0,663,663,663,663,663,663,0,0,0,0,0,0,0,0,664,661,659,657,657,657,658,667,671,673,675,677,680,0,699,700,0,0,0,0,0,0,0,0,0,0,0,0,0,0,0,0,0,0,0,0,0,0,434,0,434,434,434,434,435,436,436,436,436,435,434,435,434,434,434,432,432,433,432,432,432,432,432,432,432,432,432,432,432,432,432,432,433,434,434,435,435,436,436,436,437,437,437,437,441,441,440,440,440,440,441,441,442,442,442,442,442,691,691,691,691,691,690,689,687,686,684,683,682,682,683,685,689,691,694,696,697,697,697,697,696,696,695,695,694,694,693,692,691,691,690,689,687,686,684,682,681,680,678,678,677,677
0,0,0,0,0,0,0,0,0,0,0,0,0,0,0,0,0,0,0,0,0,0,0,0,0,0,0,0,0,0,0,0,663,662,642,637,636,635,635,634,633,633,632,632,631,631,631,631,632,633,634,635,638,640,643,646,650,653,657,661,664,667,670,673,676,679,682,684,686,688,689,690,690,691,691,691,691,691,691,0,0,0,0,0,0,550,550,551,550,550,550,550,549,549,550,550,550,551,551,551,551,551,551,552,0,857,861,866,873,881,888,894,900,905,910,914,917,919,921,922,923,924,925,925,926,926,927,927,927,927,927,927,927,927,927,927,927,927,927,926,926,925,925,923,0,0,0,0,0,0,0,0,0,0,0,0,0,0,0,0,0,0,554,554,553,553,552,552,551,551,551,551,551,551,551,551,551,551,0,606,605,604,604,0,0,0,0,0,0,0,0,0,0,0,598,599,598,600,602,604,606,608,0,0,0,0,0,0,596,594,594,594,592,0,549,549,549,549,550,550,550,550,551,551,551,551,551,551,551,551,551,551,550,0,0,0,0,488,486,485,484,483,481,0,0,457,456,456,455,454,454,453,453,452,452,452,451,450,0,0,776,776,777,777,0,0,0,0,0,663,663,663,663,663,0,0,0,0,0,0,0,666,665,663,660,659,657,658,659,667,671,674,676,679,684,689,694,697,700,702,702,701,700,699,696,694,693,692,0,0,0,0,0,0,0,0,0,0,0,0,0,0,0,0,435,434,435,435,435,438,435,435,435,435,436,436,435,436,434,437,436,435,434,432,432,432,432,432,432,432,432,433,432,433,433,433,434,435,435,436,436,437,437,437,437,438,438,438,438,439,439,439,441,442,441,441,441,442,442,442,692,691,691,691,689,688,686,685,683,682,682,682,684,686,690,693,695,697,697,698,697,697,696,696,695,695,694,694,693,692,691,690,689,688,687,685,684,682,680,679,678,677,677,676
0,0,0,0,0,0,0,0,0,0,0,0,0,0,0,0,0,0,0,0,0,0,0,0,0,0,0,0,0,0,0,0,660,658,638,638,637,636,635,634,634,633,632,632,632,631,631,632,632,633,634,636,638,641,643,647,650,654,658,661,665,668,671,674,677,680,682,685,687,688,689,690,691,691,691,691,691,691,691,691,0,0,0,0,0,0,551,551,551,551,551,551,550,551,551,551,551,552,552,552,552,552,552,552,0,858,862,871,875,883,890,896,902,907,911,915,918,920,922,923,924,924,925,925,926,926,926,926,926,927,927,927,927,927,927,927,927,927,927,926,926,925,925,924,922,921,0,0,0,0,0,0,0,0,0,0,0,0,0,0,0,0,554,554,553,553,552,552,551,551,551,551,551,551,551,551,551,551,608,607,606,606,605,0,0,0,0,0,0,0,0,945,943,942,0,0,0,0,606,608,608,607,0,0,0,0,0,0,596,594,594,593,592,589,586,0,574,573,0,552,550,551,551,551,551,551,552,552,552,552,551,551,551,0,0,0,489,488,487,486,485,484,482,0,0,0,457,456,456,455,454,454,454,453,453,453,452,451,0,0,0,0,0,0,0,0,0,0,0,0,663,663,663,0,0,0,0,0,0,0,668,668,665,663,661,659,658,659,660,666,670,673,677,680,685,690,694,697,700,701,702,701,701,699,696,693,692,691,690,689,0,0,0,0,0,0,0,0,0,0,0,0,0,0,0,0,0,0,0,0,0,0,435,435,436,436,436,436,434,434,434,433,433,433,433,433,433,433,433,433,433,435,434,434,434,435,435,436,436,437,437,437,438,438,438,438,438,439,439,439,439,439,439,441,441,441,441,441,441,441,441,692,691,690,689,687,685,684,683,682,681,682,683,686,691,694,696,697,698,698,698,697,697,696,696,695,694,694,693,692,691,690,689,688,687,685,683,682,680,679,678,677,677,676
0,0,0,0,0,0,0,0,0,0,0,0,0,0,0,0,0,0,0,0,0,0,0,0,0,0,0,0,0,0,0,0,659,658,644,638,637,636,635,634,634,633,633,632,632,632,632,632,633,634,635,637,639,641,644,648,651,655,658,662,665,668,671,674,677,680,683,685,687,689,690,690,691,691,691,691,691,691,691,691,691,0,0,0,0,0,0,551,551,551,551,551,551,552,552,552,552,553,553,553,553,552,552,552,0,0,0,868,874,885,892,898,903,908,912,916,919,921,922,923,924,924,925,925,926,926,926,926,927,927,927,927,927,927,927,927,927,927,926,926,926,925,925,923,922,921,0,0,0,0,0,0,0,0,0,0,0,0,0,0,0,554,554,554,553,553,552,552,552,551,551,551,551,551,551,551,551,0,609,608,608,608,606,0,0,0,0,0,0,0,0,945,943,941,939,938,937,0,0,605,0,0,0,0,0,0,0,0,0,594,594,593,591,589,585,580,575,573,0,0,0,0,551,551,552,552,553,553,552,552,552,551,0,0,0,0,491,489,488,487,486,485,0,0,0,0,458,457,457,456,455,455,454,454,454,454,453,0,0,0,0,0,0,0,0,0,0,0,0,0,664,0,0,0,0,0,0,0,0,0,0,668,665,663,661,659,659,660,661,665,670,673,677,681,685,690,694,697,700,701,701,701,700,698,696,694,692,691,690,688,687,685,684,0,0,0,0,0,0,0,0,0,0,0,0,0,0,0,0,0,0,0,0,0,437,437,437,437,459,444,456,433,456,455,433,434,434,433,433,433,433,433,433,433,434,438,435,438,438,438,438,438,439,439,438,438,439,439,439,439,439,439,438,438,440,441,441,440,440,441,441,441,692,690,688,686,684,683,681,681,681,682,683,687,693,695,697,698,698,698,698,697,697,696,696,695,694,694,693,692,691,690,689,688,686,684,683,681,680,679,678,677,676,676
0,0,0,0,0,0,0,0,0,0,0,0,0,0,0,0,0,0,0,0,0,0,0,0,0,0,0,0,0,0,0,0,0,651,640,638,637,636,635,635,634,633,633,632,632,632,632,632,633,634,636,637,639,642,645,648,652,655,659,663,666,669,672,675,678,681,684,686,688,689,690,691,691,691,692,692,692,692,692,692,692,0,0,0,0,0,0,551,551,552,552,552,552,552,553,553,553,553,553,553,553,553,552,552,0,856,860,866,879,884,893,899,904,909,913,916,919,921,922,923,924,925,925,926,926,926,926,927,927,927,927,927,927,927,927,927,927,927,927,926,926,925,925,924,922,921,0,0,0,0,0,0,0,0,0,0,0,0,0,0,0,554,554,554,553,553,552,552,552,551,551,551,551,551,0,551,551,0,610,609,609,609,607,0,0,0,0,0,0,0,945,944,942,940,937,936,935,934,0,0,0,0,0,0,0,0,0,0,0,0,0,593,0,0,0,0,0,0,0,0,0,0,0,0,551,551,555,553,553,552,552,0,0,0,0,493,491,490,488,487,487,486,485,0,0,478,477,471,459,458,458,455,455,455,455,455,0,0,0,0,0,0,0,0,654,651,650,655,0,0,0,0,0,0,0,0,0,0,0,0,0,667,665,663,661,660,659,660,662,666,669,673,677,681,686,691,695,698,700,701,701,700,699,698,696,694,692,691,689,688,687,685,684,684,684,0,689,689,688,688,687,686,685,0,0,0,0,0,0,0,0,0,0,0,0,0,0,0,0,460,457,457,456,456,455,434,434,445,446,445,433,433,434,434,435,436,436,437,437,440,437,440,437,441,436,435,440,440,439,439,439,438,438,438,438,439,439,440,440,440,441,441,440,690,686,684,683,681,680,680,680,681,683,687,694,696,697,698,698,698,697,697,697,696,696,695,695,694,693,692,691,690,689,687,686,684,682,681,680,678,678,677,676,676
